ply
        format ascii 1.0
        element vertex 68083
        property float x
        property float y
        property float z
        property uchar blue
        property uchar green
        property uchar red
        end_header
-272.249866 308.110166 2063.509178 26 20 21
-537.563133 -52.732545 2050.198746 41 40 12
-310.126758 226.989460 2084.847641 26 23 18
-409.728765 -360.232115 2447.618866 49 23 46
-274.907112 323.575163 2046.043205 56 43 29
-427.894831 430.992126 1781.432152 100 122 127
-523.243523 -151.173890 2145.167923 185 180 105
-284.052730 289.324236 2060.790634 244 234 224
-521.308899 -150.773895 2143.568802 71 64 9
-432.905722 -277.368522 2345.304871 56 50 31
-542.064810 -87.124211 2065.174675 175 171 112
-307.201099 208.357978 2094.324493 40 34 11
-303.331923 218.475175 2089.803123 35 39 14
-377.099848 513.430738 1765.602684 171 167 78
-409.040880 -20.600128 2157.538223 73 68 35
-305.883574 205.782294 2092.269707 115 113 72
-543.084049 -78.817934 2049.685478 77 72 23
-399.993134 -343.840885 2426.259232 85 64 36
-370.156074 519.122505 1762.597847 109 105 40
-410.104132 -366.063166 2430.228615 37 13 31
-519.421577 -43.163538 2044.129181 6 4 3
-536.327934 -99.552339 2070.215034 183 181 117
-533.646917 -108.238459 2079.741096 186 185 125
-448.822403 -420.716047 2428.112793 44 27 31
-463.078499 -426.255894 2414.126015 78 81 36
-309.689522 205.073500 2080.158615 21 19 11
-464.923716 -424.612904 2410.087013 78 81 36
-412.682295 -20.650049 2144.067383 170 160 113
-410.111046 -362.416029 2421.660614 255 244 238
-534.205580 -61.790109 2038.110733 35 30 5
-519.550323 -43.394405 2039.880371 113 112 108
-466.261148 -450.783110 2428.351784 153 134 67
-362.186790 548.646402 1742.457962 187 183 124
-364.978361 540.161705 1745.703506 108 112 47
-388.056278 -338.564134 2425.825310 83 76 56
-319.325662 199.649715 2071.107864 10 12 12
-441.514254 -421.525431 2429.157257 255 251 248
-359.496474 87.096488 2113.287544 66 65 61
-277.960610 304.885817 2029.886246 242 226 219
-277.960610 304.885817 2029.886246 242 226 219
-403.662777 453.076935 1767.195511 88 92 63
-465.300846 -466.494322 2434.855080 255 242 230
-436.715603 403.732824 1768.429375 55 61 56
-311.465883 221.445441 2056.124306 87 83 55
-428.938437 415.450621 1767.234802 136 141 110
-433.474302 -425.991106 2436.103439 253 240 242
-362.442088 78.908241 2108.893967 53 51 50
-362.442088 78.908241 2108.893967 53 51 50
-535.476542 -92.725217 2049.833107 177 170 107
-422.042751 -420.228243 2439.418602 87 88 56
-517.534876 -132.797718 2101.493645 210 206 157
-514.126921 -137.666512 2108.923912 130 128 74
-402.247429 -358.922935 2412.065125 94 82 34
-404.050779 -364.127898 2413.334274 93 80 28
-535.127020 -81.928730 2039.113998 176 173 112
-430.546713 -275.514650 2311.043930 41 39 4
-521.597862 -126.667297 2088.681602 123 121 63
-438.210440 -444.477844 2436.077499 30 18 8
-448.266411 -457.682800 2434.881401 28 22 3
-430.093813 -429.643059 2432.998657 246 230 241
-533.956099 -80.857199 2037.321854 158 156 91
-531.899452 -72.074956 2032.086182 146 130 87
-522.995472 -120.451570 2080.520058 89 86 31
-381.948519 32.543930 2117.243958 108 108 94
-412.550354 -388.305736 2418.100739 26 17 14
-505.422974 -148.235762 2121.793365 201 198 143
-411.827946 -38.999388 2138.110924 184 169 106
-444.258499 -233.606744 2256.281090 201 199 134
-436.503649 -263.413453 2287.437057 160 151 87
-505.356455 -146.731794 2116.782188 191 190 129
-364.165282 534.199905 1733.251953 114 114 50
-427.582026 -431.491375 2429.790497 78 58 57
-376.720643 47.056293 2105.939484 175 168 125
-376.720643 47.056293 2105.939484 175 168 125
-436.218739 400.760841 1757.914925 30 43 45
-532.531977 -92.039996 2041.520119 125 117 57
-532.531977 -92.039996 2041.520119 125 117 57
-400.006199 -69.494206 2171.042442 78 70 57
-395.127702 -360.562968 2407.571793 152 139 87
-406.689072 -383.219862 2412.186241 140 124 81
-421.945047 431.796980 1747.222137 15 30 33
-431.791639 -268.590331 2291.452408 206 198 145
-416.126490 -33.258533 2121.506691 103 89 40
-423.386383 -432.828522 2429.862785 255 247 249
-433.828402 -262.074804 2280.185127 203 196 133
-409.624815 -407.545948 2422.434425 25 15 15
-317.295003 206.614375 2039.214706 55 49 26
-405.284882 -415.514469 2430.863190 28 15 0
-424.935102 -272.791624 2294.180489 179 174 119
-320.651221 182.960331 2049.693108 87 70 37
-323.668790 174.087894 2053.367043 145 129 87
-324.769211 137.272429 2080.802155 31 29 18
-419.196939 -438.862038 2429.969597 43 25 18
-297.478414 253.773904 2018.404388 103 95 65
-317.761207 204.639316 2034.407806 149 140 97
-277.192163 284.765577 2015.594673 71 62 28
-360.260153 70.987171 2091.745758 86 82 57
-363.269162 63.883436 2092.564392 92 85 52
-321.730494 176.241398 2050.034142 84 73 41
-316.077232 205.500245 2032.579613 78 68 38
-424.124479 -263.527036 2281.892967 161 148 80
-427.335691 -244.058800 2262.629890 206 204 134
-378.924465 19.236806 2108.470154 98 95 81
-326.804161 126.001918 2081.990433 29 27 17
-524.902487 -86.816931 2028.435516 75 66 23
-529.330206 -78.345001 2016.492081 164 158 105
-468.222713 -201.933217 2180.833244 96 91 28
-420.105600 -263.937974 2281.323433 201 190 116
-418.578815 -276.908684 2292.993164 17 10 1
-278.941250 273.613667 2014.468193 97 87 53
-442.987585 -476.198244 2421.913719 181 169 87
-460.821486 -185.708356 2172.856712 112 101 41
-460.821486 -185.708356 2172.856712 112 101 41
-419.442511 -267.912602 2281.988907 187 178 111
-406.407118 -55.960602 2129.612541 103 93 33
-380.267930 9.880858 2106.624031 132 125 110
-363.536525 55.673331 2088.451576 94 83 53
-374.419570 490.072584 1735.355759 153 159 88
-469.994116 -176.204586 2151.980209 165 157 80
-421.864605 -239.253259 2253.966904 219 214 151
-386.909866 -23.355469 2122.265434 12 10 10
-272.955585 290.064502 1998.182487 42 39 24
-272.955585 290.064502 1998.182487 42 39 24
-366.581273 514.694881 1717.234993 192 185 128
-403.437805 -426.674652 2411.095047 128 114 48
-309.032345 204.837537 2021.692657 178 159 102
-408.836889 -461.920166 2431.277084 46 32 13
-387.802887 -104.670179 2175.073814 175 168 113
-411.816168 -275.871634 2282.044983 142 135 86
-352.546358 -345.841432 2400.760651 8 5 1
-375.918603 10.877234 2097.053909 13 11 3
-375.918603 10.877234 2097.053909 13 11 3
-378.874993 4.047400 2099.052238 101 97 79
-365.007520 35.679713 2088.979340 70 67 52
-364.176011 43.810958 2082.767487 13 7 0
-416.338062 -468.249464 2423.660088 29 20 7
-370.738292 497.903538 1721.504402 102 104 38
-349.242687 71.494097 2075.702095 114 107 64
-415.763521 -283.434582 2278.734398 11 9 9
-427.048111 -491.537285 2428.138733 255 255 217
-370.082712 14.050397 2096.410942 21 18 14
-361.747766 47.065085 2079.674721 26 20 1
-314.086175 106.228328 2085.451889 34 28 17
-397.574949 -193.306458 2226.377869 167 155 115
-414.354134 -279.623413 2274.981117 19 11 4
-366.206288 24.036665 2091.661644 69 67 56
-370.460010 -410.216141 2424.130440 154 133 72
-418.854809 -482.998514 2426.872063 104 103 69
-418.854809 -482.998514 2426.872063 104 103 69
-377.144623 374.969006 1804.746628 125 156 157
-397.846055 454.223824 1720.717812 161 162 128
-386.975169 348.138690 1813.731003 65 88 83
-374.221826 -3.057167 2099.640656 42 37 22
-413.683414 -287.170196 2276.521492 18 12 0
-389.343452 368.362141 1793.882751 81 120 142
-350.713587 -353.140926 2393.389893 143 133 85
-350.204778 65.356123 2069.506264 148 140 111
-374.475288 -168.761766 2224.145317 35 26 13
-371.286321 -165.657079 2224.447823 25 22 14
-387.707925 330.752420 1822.493553 196 210 206
-270.645213 280.065656 1986.813545 47 39 22
-314.211774 131.931138 2053.892708 85 75 51
-372.730637 -174.778497 2225.361061 37 30 15
-372.730637 -174.778497 2225.361061 37 30 15
-379.321337 -391.408062 2384.971237 138 123 67
-283.182359 252.428961 1992.175865 170 151 100
-283.182359 252.428961 1992.175865 170 151 100
-356.106424 48.377585 2070.530891 143 127 81
-370.511556 -152.570069 2209.344482 41 36 15
-370.511556 -152.570069 2209.344482 41 36 15
-397.142243 -471.886826 2426.229095 120 110 80
-373.036599 -151.254165 2204.863739 41 36 15
-402.734327 -283.590651 2274.152946 210 194 117
-385.107732 467.853594 1714.162636 133 134 60
-385.107732 467.853594 1714.162636 133 134 60
-351.370764 28.441679 2088.241577 18 15 11
-422.843266 398.569512 1725.932884 91 115 127
-388.966942 -91.094851 2139.097977 43 50 29
-277.965569 259.539890 1988.660049 82 60 12
-399.701333 -481.313038 2427.191925 23 17 0
-397.661448 -259.523368 2258.537865 224 216 133
-374.745822 -187.015867 2226.827431 105 95 47
-340.909958 66.234970 2068.436241 20 16 15
-340.909958 66.234970 2068.436241 20 16 15
-397.332096 -267.790151 2263.968658 39 24 0
-373.924494 -225.232792 2256.331062 38 31 22
-375.810313 -182.035100 2221.080971 57 47 13
-370.898628 -164.012432 2212.306595 52 47 26
-331.426382 86.201012 2061.827660 95 95 77
-345.554161 57.340610 2067.761803 156 144 102
-277.346015 264.482594 1982.036972 179 161 98
-393.882036 -258.553433 2257.807732 12 4 0
-370.801592 -169.125044 2213.929176 145 133 85
-339.007092 66.752851 2066.560555 79 80 60
-354.198813 519.218493 1701.698494 201 196 121
-366.165853 -163.835812 2211.927605 143 128 82
-369.368863 -167.172277 2210.597038 45 34 6
-377.714443 -242.816210 2259.547234 57 55 45
-374.207640 -26.390263 2097.282028 49 47 39
-370.798373 -185.202920 2222.623444 133 127 92
-370.798373 -185.202920 2222.623444 133 127 92
-368.428183 2.281032 2081.394196 16 10 5
-374.781680 -190.016091 2221.396828 120 111 74
-311.053252 120.310140 2051.552391 125 113 77
-389.121056 -285.667324 2278.365135 62 46 0
-389.121056 -285.667324 2278.365135 62 46 0
-366.509056 -159.590435 2205.441284 35 34 8
-366.509056 -159.590435 2205.441284 35 34 8
-371.706033 -398.683143 2382.850456 140 132 72
-392.290831 -261.228442 2255.315590 211 203 114
-339.735627 61.732829 2063.808632 20 21 11
-388.400888 -258.990216 2256.686211 14 4 4
-366.376734 6.722246 2076.770210 102 98 79
-373.963928 -236.465836 2252.582550 38 35 30
-373.963928 -236.465836 2252.582550 38 35 30
-363.258672 -152.426052 2199.666023 42 45 20
-272.967339 274.396062 1970.035172 52 45 18
-345.478916 48.719829 2064.233208 18 16 15
-345.478916 48.719829 2064.233208 18 16 15
-387.997341 -263.107014 2256.829834 77 67 13
-387.997341 -263.107014 2256.829834 77 67 13
-339.359641 59.325898 2062.259102 72 74 62
-339.359641 59.325898 2062.259102 72 74 62
-343.355608 -370.885205 2385.495186 49 38 0
-352.756357 24.737434 2073.111343 8 5 1
-353.662443 21.072045 2074.479675 16 14 13
-268.991995 282.686901 1965.150642 153 147 104
-388.373351 -267.490530 2257.281876 203 188 119
-371.410322 -192.396331 2217.079926 56 49 16
-371.410322 -192.396331 2217.079926 56 49 16
-353.170705 26.474199 2068.917656 81 77 66
-367.596269 -190.222025 2216.869545 123 114 76
-365.153527 -158.861792 2194.222069 176 165 107
-367.454267 -204.987836 2226.709557 167 156 104
-432.028151 373.891592 1716.655731 142 172 177
-342.742372 43.754080 2062.580109 22 21 23
-271.653605 267.019176 1967.999840 62 58 29
-386.148715 -43.622547 2081.600952 191 187 99
-365.160775 -170.047438 2199.707985 186 173 121
-316.088271 93.296188 2051.614761 125 123 89
-391.457891 -497.679520 2419.207001 41 37 0
-356.044841 13.979428 2068.319702 31 25 6
-367.341876 -195.429063 2213.533592 72 63 26
-347.194552 25.040445 2067.296982 48 42 29
-334.951377 59.313619 2053.830338 133 123 99
-334.951377 59.313619 2053.830338 133 123 99
-384.544325 349.233031 1781.101608 35 46 30
-337.212706 52.798361 2055.823326 58 48 30
-400.589323 402.455521 1723.173904 92 124 123
-278.795552 224.473524 1987.128448 161 138 88
-278.795552 224.473524 1987.128448 161 138 88
-307.782102 108.838880 2044.054604 203 189 131
-317.959309 85.995263 2049.956894 29 24 25
-362.666416 -155.998421 2185.202217 67 57 17
-334.029937 54.831165 2055.203629 46 34 16
-359.887695 -9.395030 2076.072693 161 149 107
-359.887695 -9.395030 2076.072693 161 149 107
-276.368713 208.002520 1999.850655 172 152 104
-308.142161 101.106286 2046.002007 115 106 73
-367.236733 -202.241993 2212.717247 187 176 116
-375.908041 -458.671999 2393.127060 192 180 108
-360.322356 -22.444606 2080.084801 32 25 22
-382.912517 -497.462463 2414.268494 130 132 72
-358.316875 504.307508 1683.449745 88 91 22
-337.981844 -380.360866 2371.921921 174 158 89
-262.582660 238.293958 1984.750938 181 168 106
-262.582660 238.293958 1984.750938 181 168 106
-262.602568 254.341078 1972.040939 181 160 98
-358.299613 -21.816425 2078.881454 132 128 104
-343.524361 14.125812 2067.000198 13 12 14
-356.492615 -218.685102 2227.696419 177 171 100
-253.902125 244.351196 1986.623192 178 159 98
-366.527677 471.283054 1697.170830 158 157 77
-364.996648 -185.068071 2192.596817 189 193 128
-364.996648 -185.068071 2192.596817 189 193 128
-380.256486 -54.093575 2077.043343 183 179 108
-353.780770 -4.583620 2067.573738 185 168 119
-374.881530 -457.135153 2385.460663 153 137 70
-359.482694 -178.636026 2191.996574 190 181 124
-299.746275 106.520355 2040.180016 64 49 17
-364.725184 -431.605005 2376.486969 179 166 90
-361.329246 485.194921 1690.536690 170 165 80
-364.971709 -251.265502 2239.988708 95 90 45
-317.831945 70.642531 2047.319984 65 53 29
-367.847013 -444.663095 2382.043076 124 112 40
-367.847013 -444.663095 2382.043076 124 112 40
-350.551200 -426.056480 2385.669327 15 13 3
-344.420958 -404.917812 2375.523567 23 19 1
-375.876427 -253.148103 2227.442741 235 229 132
-242.575169 249.254918 1989.353180 99 83 41
-362.396526 -187.741327 2191.791153 190 195 133
-367.425251 -503.947258 2421.992874 255 255 219
-368.614435 -459.899569 2387.672043 208 198 120
-370.458317 -482.308292 2400.909424 191 183 113
-358.299208 -187.502778 2191.870880 32 28 3
-331.868672 -357.065034 2345.658684 131 118 66
-382.611465 337.576580 1770.600700 97 108 106
-357.344580 -192.163539 2192.295837 192 191 130
-357.344580 -192.163539 2192.295837 192 191 130
-362.096620 -272.029924 2246.998787 191 186 117
-371.798682 -256.130934 2223.531342 236 227 154
-274.828959 122.475863 2040.239143 29 26 11
-370.374203 462.403965 1686.916733 145 146 72
-354.941535 -191.227198 2190.028191 50 40 10
-329.287505 30.431727 2050.841522 9 8 0
-393.151927 437.414503 1680.891037 186 180 115
-393.151927 437.414503 1680.891037 186 180 115
-354.188752 -195.248067 2192.765045 205 193 139
-158.180737 160.851324 2130.726242 56 57 41
-365.102577 465.704679 1687.925911 160 154 71
-373.567700 463.424635 1680.228043 71 63 3
-353.159618 -227.296615 2215.897942 68 58 24
-326.578212 -356.939530 2339.915657 136 125 67
-348.479581 603.613329 1600.825691 179 177 166
-373.398137 -60.020179 2068.017006 176 174 104
-373.938155 -59.795749 2067.136955 176 174 104
-359.958148 -280.992579 2244.850922 186 194 131
-381.962061 325.425434 1770.729065 100 129 104
-119.120133 205.527377 2131.657219 254 236 229
-119.120133 205.527377 2131.657219 254 236 229
-357.639122 -478.296471 2392.725372 168 164 113
-352.355123 -230.647111 2214.095116 179 171 118
-357.256603 -291.589689 2253.044128 181 175 110
-382.188606 309.643841 1780.751801 118 159 162
-350.551271 -174.017143 2172.442818 178 173 124
-298.324203 72.583085 2043.019676 56 46 29
-383.511782 307.073379 1780.546951 131 174 177
-299.139762 68.249542 2043.743324 30 24 11
-388.547349 435.782671 1678.426361 168 163 94
-276.186919 107.523024 2037.710571 80 74 55
-353.145242 -296.681976 2257.947159 56 44 0
-420.517015 376.505899 1688.791466 78 98 103
-348.726058 -234.606671 2215.759468 198 190 131
-353.791881 -207.812119 2190.625763 181 181 97
-307.152414 51.389533 2046.524048 110 104 81
-117.912090 202.489352 2128.780556 21 10 2
-389.263391 436.933661 1675.242996 75 71 30
-384.352016 342.916346 1749.896431 121 164 167
-345.171952 -498.351765 2413.423347 178 170 93
-352.872992 -202.524376 2185.905647 47 46 20
-301.517797 61.246204 2042.139816 50 43 24
-350.434375 -519.917202 2421.707153 251 237 231
-386.737847 444.436407 1670.491028 176 174 139
-114.059758 203.539109 2127.991486 253 232 224
-345.972538 -310.101581 2269.105339 183 177 106
-303.971887 48.079151 2046.205521 55 51 40
-390.588737 432.096481 1673.255539 174 177 128
-365.968728 -105.852914 2095.448303 191 189 124
-370.080876 -84.723574 2075.304794 108 105 44
-311.193514 -367.353058 2342.294121 129 112 56
-315.349126 26.118329 2047.373962 28 26 25
-358.845973 -267.372036 2219.083595 44 38 3
-109.798598 201.364970 2128.671265 29 10 5
-382.490039 341.144800 1746.113777 83 124 126
-350.784755 -192.696381 2171.054840 160 159 121
-340.247583 -193.422353 2181.959915 98 93 48
-292.478251 63.458771 2041.279984 117 103 74
-148.552132 189.937568 2094.117546 12 10 9
-393.601632 408.273315 1682.392120 115 121 74
-313.952088 -344.182754 2315.590668 189 179 131
-310.120296 -428.065729 2380.843925 162 154 101
-350.214696 -282.335758 2232.455444 173 166 93
-344.192553 -282.076764 2237.471390 65 58 1
-364.871287 -85.955381 2071.607208 190 188 123
-394.927120 423.954582 1665.951157 168 169 119
-281.145096 63.435441 2045.874977 106 97 70
-112.251091 199.877012 2117.271805 26 19 16
-379.898214 320.229340 1756.275368 117 166 174
-342.454123 -193.650305 2170.064545 57 51 10
-417.440510 376.053452 1675.413513 96 126 115
-339.295411 -207.545328 2182.326508 58 49 16
-312.940335 4.684545 2053.221321 29 27 17
-395.983052 425.828218 1659.866524 60 61 22
-335.759664 -308.393860 2258.583069 207 205 141
-333.893943 -489.982319 2392.562294 215 202 124
-367.711854 454.902554 1666.439629 142 133 65
-308.286715 19.920443 2044.978905 109 102 82
-355.385852 -114.409065 2095.022392 209 197 119
-362.756467 495.436764 1640.504074 154 150 132
-395.677781 426.527977 1657.084274 158 157 129
-305.311894 -345.714951 2311.169815 179 173 120
-360.300875 -82.951897 2062.640190 105 93 45
-328.657103 -493.788767 2392.881012 206 200 129
-363.699436 493.936729 1636.861229 196 194 183
-340.811849 -287.194324 2228.710747 204 209 148
-335.636210 -195.901835 2166.617012 186 180 121
-330.009365 -312.586021 2256.962204 165 158 89
-299.594522 17.300025 2047.244263 21 19 18
-378.663421 319.619060 1747.117996 63 110 132
-335.910988 -178.163743 2152.530670 173 172 112
-115.559351 151.051080 2133.130264 31 28 30
-391.376448 433.552122 1649.161530 73 80 47
-112.640750 196.245456 2102.157593 65 54 40
-299.040198 3.770120 2053.535271 21 16 18
-322.767520 -290.429211 2243.029404 93 87 52
-302.049279 -427.612257 2362.369728 171 160 110
-395.963764 425.415468 1647.310257 76 79 63
-120.588589 153.533387 2121.174812 51 39 27
-109.893155 196.962869 2100.044250 255 245 239
-302.157426 -433.279848 2362.965202 76 64 22
-119.548714 177.871943 2102.487564 29 26 11
-333.411145 -224.212456 2178.839302 205 201 142
-317.952013 -479.183578 2378.980827 143 129 46
-102.052379 192.183292 2109.122276 51 42 33
-362.146926 529.522133 1603.687668 192 193 191
-334.438086 -223.393273 2176.943970 205 201 142
-105.440426 193.017161 2104.377937 51 42 33
-324.362826 -308.995891 2248.307800 76 62 13
-328.997254 -186.117792 2154.001617 88 80 33
-111.908853 152.813709 2126.163673 244 222 204
-388.658237 428.083420 1648.979950 94 98 86
-360.776615 539.082718 1596.287918 139 140 138
-276.832008 -378.011417 2343.217850 37 33 15
-373.928833 779.949045 1407.383919 137 141 136
-286.086416 -406.912899 2351.402473 87 75 27
-329.742670 -202.133298 2159.796906 197 193 135
-327.983475 -237.874985 2185.623169 196 194 136
-312.611961 -299.177003 2244.679642 9 9 0
-384.850049 454.605913 1627.976227 182 180 169
-361.328197 505.144215 1614.065933 111 111 95
-324.815965 -184.848523 2147.111511 200 190 143
-394.515896 391.911864 1661.608124 110 114 79
-386.357737 434.742069 1638.659477 187 183 172
-360.238934 514.048910 1607.184029 94 92 84
-325.629544 -207.104874 2159.244156 201 198 154
-358.990550 520.454597 1602.894020 118 119 80
-290.839219 -326.364350 2279.476738 29 24 21
-306.508422 -292.560101 2239.308357 193 184 150
-387.435985 447.668123 1625.863266 177 178 176
-380.148673 759.237528 1409.152794 200 200 200
-380.148673 759.237528 1409.152794 200 200 200
-334.493732 -77.878737 2054.819679 135 124 66
-334.493732 -77.878737 2054.819679 135 124 66
-386.555696 429.591084 1638.764191 176 172 161
-358.297062 680.285406 1486.657238 205 206 210
-353.858876 665.546513 1500.931644 200 201 185
-320.133877 -242.147422 2185.538864 184 179 130
-412.042332 362.804198 1660.236931 109 124 110
-323.851848 -203.101945 2152.822304 173 171 107
-332.492805 -92.573386 2064.697647 154 144 90
-262.695503 -389.915895 2346.796036 98 83 37
-259.302354 -404.759216 2360.484505 255 239 226
-331.514335 -77.557272 2054.363632 187 181 116
-331.514335 -77.557272 2054.363632 187 181 116
-256.003714 -365.841103 2335.582924 42 23 20
-393.705964 411.019754 1642.331696 157 157 117
-244.964600 -463.473415 2416.259956 84 77 57
-288.479710 -330.477595 2277.590370 37 33 5
-331.541944 -84.388387 2058.019638 129 115 66
-248.032022 -467.486238 2413.264275 29 23 16
-353.930926 668.244028 1495.554829 181 185 179
-355.847931 528.084612 1593.908310 195 195 171
-323.468518 -126.306593 2094.123840 128 122 49
-294.523954 -508.220053 2395.869827 201 194 137
-257.846761 -381.275749 2339.912605 140 128 58
-354.091835 674.086809 1488.747692 119 116 125
-353.450441 560.929155 1569.741821 135 138 106
-376.151562 744.487238 1414.970207 199 199 199
-314.130425 -185.541737 2137.844276 201 194 145
-312.313509 -192.474055 2144.330406 79 69 21
-317.449546 -73.060334 2053.996849 166 157 93
-316.862845 -233.520484 2168.276978 205 207 125
-315.315390 -188.018918 2137.049103 171 166 127
-350.890017 670.945597 1489.999771 128 123 132
-249.824357 -376.291776 2334.335327 255 237 230
-425.361013 338.279200 1653.237152 46 67 64
-362.518311 278.882766 1757.193565 150 176 153
-363.304448 495.590448 1602.165413 44 51 36
-255.795693 -435.725498 2369.952583 250 234 227
-292.025661 -290.619802 2230.635262 73 63 33
-358.978653 610.297775 1523.771954 182 182 182
-353.920412 548.246336 1572.766972 183 181 170
-357.487750 691.989183 1467.024803 205 207 208
-357.487750 691.989183 1467.024803 205 207 208
-358.517671 691.651344 1465.982437 205 207 208
-274.880075 -325.794387 2270.473671 255 250 214
-315.442467 -209.202671 2147.868919 203 196 141
-355.255890 497.512817 1606.569099 58 58 28
-320.495820 -119.377530 2078.923416 121 111 51
-349.092817 660.880470 1496.347141 120 116 122
-349.092817 660.880470 1496.347141 120 116 122
-359.842277 484.134912 1611.130714 185 187 157
-290.777946 -293.015862 2230.305481 169 169 105
-283.405232 -503.296614 2386.700249 203 194 130
-309.385538 -185.137856 2134.720802 48 41 8
-314.604187 -99.787438 2068.914604 144 128 81
-281.117058 -493.496418 2381.100845 188 180 103
-281.117058 -493.496418 2381.100845 188 180 103
-314.702702 -63.794422 2042.668915 151 143 84
-275.682735 -337.934041 2275.367928 248 232 226
-357.169557 563.901138 1555.529594 95 95 77
-308.906102 -187.955010 2135.827446 187 177 130
-297.165561 -258.834672 2196.439171 140 139 81
-365.394998 487.326860 1600.459671 120 120 96
-347.144604 635.274315 1512.814331 28 30 10
-311.362290 -66.642541 2044.741249 186 185 127
-385.958338 423.310566 1623.939133 80 77 39
-354.599953 502.824497 1598.146343 172 175 130
-351.359177 626.245737 1513.746929 98 101 79
-356.451821 606.350040 1521.902275 204 202 201
-277.371764 -492.377663 2376.025963 117 102 39
-344.708681 649.207592 1502.998829 193 190 145
-344.778204 649.145985 1502.959251 193 190 145
-268.051910 -327.166986 2267.714310 97 87 17
-355.187440 507.978106 1591.898251 189 185 161
-307.788897 -66.560012 2044.227028 190 188 130
-349.378753 670.297050 1482.758808 136 131 140
-357.859945 597.047997 1526.069450 81 82 72
-387.857723 383.103871 1647.817802 18 21 0
-302.918649 -247.305512 2175.872993 205 204 154
-272.153711 -510.088491 2390.714455 159 147 81
-357.567811 585.912180 1533.198929 120 118 118
-344.377804 637.325096 1509.254265 68 75 38
-357.986927 272.695994 1753.454781 61 78 57
-200.590205 76.596427 2044.030380 114 114 100
-344.949269 642.684698 1504.263210 126 128 76
-344.338870 646.934605 1501.665592 59 61 19
-367.812800 769.843626 1392.070770 180 181 177
-354.764104 601.323175 1523.549843 79 80 64
-355.664539 601.252460 1522.479057 79 80 64
-355.664539 601.252460 1522.479057 79 80 64
-342.515826 652.195930 1499.126911 158 157 101
-345.251298 667.698002 1484.439373 197 202 187
-307.043839 -136.866355 2088.173866 196 191 116
-300.383162 -186.677253 2129.321098 184 179 140
-206.223059 71.233279 2038.561440 18 10 0
-386.738873 418.888903 1618.636513 175 171 122
-298.044705 -243.089938 2170.441818 206 205 115
-366.001225 467.101526 1604.282761 176 168 115
-201.267505 75.391746 2039.093018 10 12 0
-277.194691 -280.164695 2215.629578 201 197 156
-301.036811 -67.406875 2042.649841 204 196 137
-360.487914 484.981823 1595.994091 179 173 150
-386.557484 383.734870 1641.896820 62 64 28
-363.487196 468.470240 1604.546547 169 161 114
-130.062580 147.086382 2055.958748 248 233 230
-354.820991 568.045378 1542.454433 172 168 157
-355.218935 602.303553 1517.786503 101 101 89
-361.713457 473.705673 1601.504135 178 171 132
-361.713457 473.705673 1601.504135 178 171 132
-350.992918 626.219320 1504.419136 196 194 184
-394.248486 404.057980 1618.425560 79 85 60
-353.972793 514.794683 1579.252911 145 138 135
-296.051121 -193.902552 2131.874275 115 110 65
-352.195621 694.350624 1454.191303 208 210 211
-361.085320 486.477375 1591.057587 187 178 145
-345.969939 639.837885 1497.582150 130 129 119
-350.733280 273.007965 1750.059319 55 65 48
-388.922834 409.137964 1617.583847 178 180 134
-388.922834 409.137964 1617.583847 178 180 134
-365.832424 769.167423 1386.844254 110 111 107
-356.133628 607.394600 1509.414673 157 157 143
-347.646546 626.394844 1504.035568 176 172 171
-296.370816 -65.773684 2037.920189 117 109 62
-346.188903 679.946470 1467.532730 210 212 213
-209.401560 63.230461 2031.179810 9 7 0
-353.370333 574.406195 1534.474659 191 186 171
-269.939804 -283.745980 2215.558624 37 37 13
-269.939804 -283.745980 2215.558624 37 37 13
-294.930267 -197.507179 2130.913925 50 50 2
-386.803460 409.758520 1616.551781 84 86 64
-383.380747 418.112659 1613.946915 120 118 78
-385.939527 394.915009 1627.314377 131 138 87
-346.897745 683.532047 1462.637424 147 149 160
-267.745066 -289.472079 2218.856812 174 174 90
-364.057922 751.156569 1398.471451 196 197 193
-301.071692 -145.281899 2085.812569 131 127 76
-366.196871 749.167395 1397.494602 111 108 110
-296.012092 -211.843848 2136.453247 44 27 8
-347.214675 495.832539 1592.580128 110 113 57
-385.264373 381.994891 1635.600662 125 121 97
-343.574643 682.785702 1464.713764 195 198 203
-352.561045 490.138340 1589.874458 153 155 126
-205.485415 56.833440 2033.344269 19 10 6
-354.006910 482.085943 1594.050407 126 123 115
-339.064717 645.119762 1494.537640 177 182 153
-290.400767 -195.521700 2127.698135 173 166 123
-383.207607 412.348318 1614.386940 175 179 144
-350.518441 594.655609 1518.149662 189 190 180
-345.966911 618.104219 1506.076241 61 64 49
-291.001892 -203.614235 2132.054138 168 156 108
-288.569236 -183.092165 2119.832993 191 180 142
-345.495367 518.658686 1575.634956 77 82 51
-377.780867 425.174761 1609.744835 192 185 142
-335.709286 646.657276 1495.293331 114 124 124
-335.709286 646.657276 1495.293331 114 124 124
-381.538844 414.976835 1612.991142 138 136 101
-384.154749 382.686615 1632.934380 168 166 126
-343.782234 270.267057 1749.612236 148 172 148
-364.649558 748.571920 1395.744705 184 185 189
-364.649558 748.571920 1395.744705 184 185 189
-351.419449 278.731823 1735.840416 94 137 152
-284.074521 -209.931874 2140.460587 160 147 109
-388.278556 402.614164 1613.802147 91 89 81
-361.894107 731.766224 1409.555435 200 201 199
-285.463190 -237.025499 2157.039070 43 41 6
-350.447178 598.409367 1513.010216 179 178 180
-260.420275 -285.325265 2214.349937 158 157 83
-345.000362 615.800953 1505.881405 212 213 203
-262.473130 -61.974561 2056.598282 15 13 13
-351.634812 602.140093 1508.653450 188 188 188
-338.360715 631.273317 1500.745392 175 171 100
-252.461767 -49.888599 2056.805420 58 58 46
-386.717725 403.742552 1612.484169 136 135 121
-378.945994 414.456034 1612.071609 182 180 140
-363.337684 751.150608 1392.451191 119 117 123
-334.642291 650.792170 1489.411354 207 210 201
-363.247585 743.645620 1397.428703 125 124 128
-257.510591 -276.602006 2207.488251 19 12 3
-257.510591 -276.602006 2207.488251 19 12 3
-257.337141 -288.640332 2215.263557 32 29 1
-382.134318 406.198168 1613.063622 180 182 146
-332.740021 548.262978 1561.334801 204 207 191
-285.048795 -223.699236 2142.091370 115 109 64
-345.515895 607.177448 1507.433605 87 89 77
-345.515895 607.177448 1507.433605 87 89 77
-348.995066 698.228931 1440.884399 158 158 158
-340.146136 617.583132 1505.277157 109 111 105
-252.885151 -282.858753 2212.035561 175 177 107
-341.468406 477.792168 1600.114250 42 47 18
-343.771434 585.539627 1523.143482 149 145 150
-333.540487 514.595795 1581.811905 214 212 181
-337.622547 670.678663 1469.654655 202 203 207
-211.681080 47.072411 2021.399307 51 39 15
-330.635667 539.504910 1566.887665 139 143 132
-334.139466 510.242271 1583.044338 220 217 202
-359.752607 739.959192 1399.471474 192 186 181
-359.752607 739.959192 1399.471474 192 186 181
-359.752607 739.959192 1399.471474 192 186 181
-333.616543 496.499777 1592.905617 80 80 56
-336.838603 582.894039 1529.712963 192 196 171
-328.303456 550.257540 1560.367584 149 153 142
-340.464211 613.479090 1504.919338 158 167 154
-285.073471 -101.971781 2052.495003 123 106 67
-402.227688 359.447861 1621.629906 46 49 47
-336.702967 671.222639 1467.808151 151 152 156
-336.702967 671.222639 1467.808151 151 152 156
-337.516737 674.354553 1464.693546 153 154 158
-379.001880 404.533052 1611.808395 190 188 154
-284.687328 -137.900352 2076.604271 121 112 55
-330.763340 647.266293 1489.526844 115 128 136
-277.616096 -216.231918 2136.843491 28 25 0
-284.249568 -118.636012 2062.470818 181 176 127
-380.735493 399.991202 1612.370300 76 76 52
-332.629800 653.703642 1482.289410 123 136 152
-354.728055 720.864391 1414.891529 156 155 159
-332.182574 659.425354 1478.723812 174 175 185
-410.121298 340.275669 1625.208282 36 45 42
-358.367920 443.544436 1602.689171 52 53 21
-335.286331 669.547749 1468.255234 200 201 205
-410.110664 337.687826 1626.370239 170 184 166
-336.146712 477.726364 1599.289036 203 208 179
-334.963846 615.791416 1504.831409 88 83 68
-274.605107 -227.649903 2143.056297 117 112 49
-364.767814 427.199984 1605.855179 59 60 34
-383.898139 398.144770 1607.724190 59 62 40
-335.545397 471.350336 1602.725601 92 94 52
-340.520644 605.604935 1504.931355 137 139 140
-328.834224 653.779602 1482.634544 193 200 195
-341.385436 280.452442 1727.774048 129 169 168
-341.394758 277.974820 1729.427338 122 160 164
-327.086806 530.586863 1568.370056 166 165 161
-278.767967 -121.904755 2063.527107 130 122 82
-333.267212 266.440320 1743.792725 54 52 51
-364.051700 411.641884 1614.517021 81 82 62
-339.842653 453.888416 1607.820129 179 168 110
-330.325651 486.788130 1594.072819 195 196 187
-205.344582 34.820846 2022.803497 131 124 105
-329.985595 492.092562 1590.441132 197 198 188
-329.985595 492.092562 1590.441132 197 198 188
-341.699624 452.123499 1606.254387 67 65 24
-354.283166 741.595459 1393.384552 115 111 106
-371.103835 400.115347 1610.678864 93 92 71
-377.805996 395.637012 1607.396507 180 183 158
-196.840549 52.884763 2011.314964 16 14 14
-196.840549 52.884763 2011.314964 16 14 14
-271.762872 -100.391054 2045.954895 190 178 120
-263.003087 -217.387366 2133.095169 171 173 113
-359.666395 400.160646 1617.911911 160 163 118
-264.689422 -71.307254 2028.935242 181 170 108
-267.067766 -147.205889 2078.365135 196 189 134
-260.047269 -184.842122 2110.060883 181 173 120
-258.145976 -213.966846 2131.489372 39 33 4
-205.389261 39.577118 2006.792259 31 22 12
-255.823851 -209.427023 2129.586983 167 161 108
-230.674052 -29.805738 2028.762245 28 26 18
-356.658196 405.090714 1613.958549 159 154 129
-355.028963 433.221722 1595.771027 84 82 47
-341.458297 703.111172 1424.103546 163 164 162
-350.537586 436.353827 1597.336769 101 98 60
-350.599551 397.971106 1622.790337 30 33 8
-224.643397 -21.829320 2025.268555 40 36 17
-382.282901 353.481698 1622.567749 182 194 176
-118.728220 203.162193 1968.495369 70 61 48
-340.631294 710.003614 1416.393185 146 148 149
-350.122786 413.401175 1608.799744 177 172 141
-350.377178 425.753546 1598.447704 152 146 123
-257.252288 -147.658134 2073.469734 198 192 127
-139.769161 126.900542 1995.443535 63 54 27
-310.745859 275.170755 1735.696793 189 196 181
-199.517584 38.675752 1998.812103 52 43 29
-215.655756 -15.044281 2019.552612 66 62 43
-195.428550 9.392316 2021.202469 14 9 10
-186.396837 54.066515 1999.120712 32 30 20
-338.320255 703.803110 1417.829323 142 140 146
-117.370868 215.583491 1952.422714 190 181 144
-281.157374 467.875671 1629.828835 152 153 127
-343.776751 433.116865 1595.100117 42 42 6
-123.290038 208.264089 1950.891113 187 168 101
-348.025727 429.167175 1593.234158 46 49 17
-280.449128 469.434595 1628.326607 60 64 35
-280.449128 469.434595 1628.326607 60 64 35
-371.676397 341.128707 1629.730606 34 42 32
-121.819127 212.511635 1946.397400 50 43 16
-261.303163 595.647478 1558.619118 120 123 114
-118.750358 212.859106 1948.616409 45 36 3
-275.467324 467.589426 1631.864357 143 145 126
-188.988066 45.480841 1995.562172 149 139 109
-270.543051 470.462132 1633.495522 66 75 42
-249.555087 -127.433527 2056.558037 197 188 138
-364.009523 354.017258 1625.045395 185 198 166
-117.529356 214.913845 1944.505501 184 177 128
-117.097247 210.087943 1946.858025 135 123 81
-252.116609 611.124659 1551.451969 127 122 123
-144.320750 -234.287167 2219.113541 186 177 114
-119.899559 204.342818 1946.204185 75 64 34
-117.125845 212.202716 1942.400932 56 44 10
-148.325837 103.971171 1986.083031 72 62 32
-250.250888 599.359751 1559.578228 113 110 112
-359.103394 343.339396 1631.932068 142 148 117
-287.468100 430.927992 1638.509369 136 137 103
-118.727922 206.070995 1943.801880 214 196 135
-161.903381 73.108745 1993.706703 39 33 14
-266.299105 466.281462 1633.432007 76 81 49
-322.789907 410.501623 1619.261932 125 127 97
-200.838399 -6.695578 2009.965515 31 20 12
-248.781705 591.854525 1563.657665 145 178 187
-144.263077 134.092307 1966.153717 178 158 103
-204.048157 -36.845618 2026.270103 37 35 25
-244.307995 638.348007 1535.893822 163 156 141
-281.415439 447.495985 1629.511261 120 123 91
-127.054834 186.668611 1945.263481 175 163 115
-165.760267 63.926548 1992.043304 19 15 14
-249.975848 -78.822082 2010.958099 86 76 28
-275.560665 435.729980 1642.405701 127 129 87
-352.536392 354.291272 1626.499557 162 172 142
-242.494988 629.990816 1541.561699 99 103 108
-205.334187 -47.893572 2028.813934 172 169 141
-352.819037 344.072008 1631.783104 146 154 123
-115.195525 211.271048 1936.456490 50 39 17
-198.113000 6.009197 1997.982597 198 187 130
-241.259265 620.450783 1547.208595 181 202 210
-241.259265 620.450783 1547.208595 181 202 210
-124.714041 -223.975372 2217.832565 185 172 98
-256.325269 466.479206 1635.849190 80 84 49
-256.325269 466.479206 1635.849190 80 84 49
-144.712758 113.633049 1973.201561 82 70 42
-125.913751 -206.524396 2203.863144 168 152 76
-126.809883 -205.721021 2202.334595 168 152 76
-239.915872 621.614027 1546.241665 85 98 112
-239.915872 621.614027 1546.241665 85 98 112
-240.154004 592.114496 1565.487385 216 216 216
-126.370287 -214.335656 2207.908630 185 172 104
-263.073111 448.036098 1640.640259 141 143 113
-113.791621 211.348844 1933.849335 48 37 5
-245.222664 476.605082 1637.249756 159 162 130
-234.811211 599.277353 1563.846111 112 114 115
-235.397577 599.222088 1563.214588 112 114 115
-236.108065 611.190414 1554.429245 165 167 161
-176.197278 44.155517 1987.040138 96 96 72
-329.715848 752.035809 1375.273895 137 132 99
-144.494271 120.851731 1963.907433 149 130 85
-264.651608 437.993813 1642.738533 124 126 90
-233.084416 605.584288 1559.307480 108 110 118
-232.811093 622.836256 1547.791576 70 84 106
-233.439970 612.619734 1553.728199 90 92 92
-180.759704 37.692639 1984.437180 48 36 12
-168.246186 50.142521 1986.714554 48 49 40
-168.246186 50.142521 1986.714554 48 49 40
-249.053407 470.127964 1633.574295 66 70 41
-229.848766 638.568020 1538.629818 124 120 119
-230.608034 614.330816 1553.733540 174 179 177
-230.782199 607.424259 1557.672310 168 169 165
-230.326509 620.715141 1548.647404 183 213 224
-105.091357 231.043816 1920.952225 192 180 110
-159.764123 59.796780 1984.970856 32 23 14
-184.601116 -9.224325 2007.758331 33 29 10
-110.937381 -209.778953 2207.358932 245 229 216
-226.534486 623.345137 1548.391342 86 89 104
-226.534486 623.345137 1548.391342 86 89 104
-188.459539 -55.998445 2033.777618 28 23 20
-227.785301 607.607269 1557.416248 116 113 108
-223.156834 641.358042 1539.114761 219 208 176
-223.726773 637.703228 1540.508366 201 209 179
-243.518686 464.270115 1637.509727 165 164 138
-191.784477 0.807986 1991.205215 158 147 90
-165.975583 49.394241 1982.175255 82 80 72
-178.739464 32.752031 1981.268311 53 46 31
-340.022683 340.386939 1632.016373 144 155 139
-340.022683 340.386939 1632.016373 144 155 139
-222.191000 618.081331 1553.313923 108 108 114
-223.107624 639.060259 1538.498402 106 103 95
-259.415817 429.162264 1644.361877 53 56 34
-223.653865 588.228512 1570.847797 213 226 228
-176.801467 25.641900 1985.437775 177 162 123
-116.395283 191.201568 1928.878784 197 174 126
-220.799828 597.532463 1565.853214 107 107 107
-203.040099 328.642082 1760.099983 157 163 138
-137.862837 101.638770 1968.587494 145 134 96
-218.638682 638.317919 1540.556240 107 105 111
-150.664175 75.814462 1973.909950 157 146 108
-158.673429 58.714062 1978.048897 114 98 56
-181.578255 -18.896335 2008.622742 171 153 92
-235.467696 459.889174 1642.577934 101 99 88
-217.485595 645.525169 1535.615921 136 128 121
-162.472880 46.163127 1981.061935 149 140 107
-669.358110 361.866879 1317.100906 37 51 50
-113.029146 197.105670 1925.308228 180 162 99
-142.667305 -107.376301 2099.764633 255 243 220
-139.434230 99.860710 1964.496040 88 79 42
-98.175788 222.591400 1920.106888 42 34 17
-174.061108 18.276289 1987.047577 52 45 25
-105.462122 215.500331 1916.848755 176 158 95
-219.873595 480.418634 1639.458084 196 194 163
-185.620070 1.529425 1986.131859 199 181 134
-99.193841 232.749176 1910.256577 197 184 122
-178.570020 -62.528396 2034.097672 173 158 102
-175.999749 -44.444460 2024.058342 45 37 20
-175.999749 -44.444460 2024.058342 45 37 20
-211.105967 634.984589 1543.674850 206 205 179
-101.633501 219.957376 1914.923096 123 119 70
-241.285229 439.334154 1645.669937 113 105 75
-211.523795 627.555466 1547.963428 97 103 116
-176.696098 -24.802500 2008.846474 44 37 18
-104.267931 212.992907 1916.631889 70 50 2
-232.930136 452.335167 1643.866730 157 157 121
-174.256921 -47.530028 2025.353622 49 42 17
-215.449667 479.074049 1641.348267 75 74 40
-182.744253 -0.327838 1986.222076 49 44 23
-211.972022 640.970182 1537.706089 209 199 175
-139.046741 89.964157 1965.541649 147 136 92
-175.908196 -19.940867 2004.251099 170 162 103
-96.661729 221.187067 1915.938950 35 21 0
-123.481941 158.573210 1933.098221 153 138 82
-207.372355 626.965714 1549.532127 197 200 204
-208.553553 622.159004 1551.512909 202 208 207
-226.362705 469.102573 1636.281586 167 171 136
-122.941542 -113.064384 2109.552383 145 138 81
-204.351377 647.417402 1536.731625 124 121 116
-152.860188 51.890135 1973.407745 157 142 103
-106.929445 189.089322 1923.394966 149 128 66
-100.821102 211.574125 1913.929749 60 47 1
-153.397846 45.607081 1975.627518 159 140 83
-210.879540 475.629187 1642.289734 193 189 141
-203.198409 644.208288 1538.371563 144 144 150
-97.590071 216.906428 1911.979866 98 88 28
-202.040720 648.314381 1536.238575 212 201 173
-234.013867 439.200974 1645.041084 109 109 85
-234.749866 434.315252 1646.691322 54 57 25
-205.993605 477.701616 1643.662071 193 191 143
-252.719688 417.591524 1641.639519 119 122 97
-252.719688 417.591524 1641.639519 119 122 97
-232.052970 429.563999 1651.785469 60 63 38
-174.074721 -2.216296 1985.433578 19 17 17
663.896036 252.528977 2562.721443 32 39 26
-149.441826 52.980262 1970.457458 105 96 82
-132.494581 80.956471 1966.894150 115 110 71
-213.990331 544.899464 1590.825558 207 198 164
-162.867391 19.503431 1979.795456 172 156 109
-81.415021 -152.307069 2163.340759 244 228 222
-233.629847 437.210608 1643.004990 160 154 113
-192.962682 736.284590 1483.043098 180 174 169
-74.929488 -133.930659 2156.641579 255 245 238
-89.709502 229.758883 1904.971504 63 46 27
-301.672626 344.939303 1642.346764 148 154 119
-193.986547 631.127310 1549.021339 128 123 125
-77.680105 -153.885925 2163.933182 255 238 230
-78.230017 -150.196302 2160.661888 102 80 38
-91.581172 209.617305 1912.847710 40 35 10
-172.646403 -8.216631 1982.648659 17 6 2
-302.997732 341.148615 1639.543343 157 163 138
-302.997732 341.148615 1639.543343 157 163 138
-88.407922 218.441701 1908.032990 66 47 9
-171.677756 -11.618817 1982.890129 189 176 120
-191.833186 481.422949 1643.670654 169 168 124
-202.184057 471.404839 1641.065216 93 94 54
-292.438602 356.369686 1636.065865 155 165 122
-79.173219 -158.088100 2157.477951 99 88 44
-118.659687 84.317851 1964.908981 80 63 30
-212.437439 442.781639 1648.347473 167 160 121
-121.691585 79.703748 1962.491226 75 63 27
-69.834644 -148.329675 2155.439949 255 239 239
-207.799864 437.354708 1654.362679 180 174 127
-68.592417 -118.408346 2136.919212 255 236 228
-183.730733 603.987265 1567.089653 144 139 140
-88.313478 231.054425 1892.561340 184 167 104
-294.224119 341.453099 1640.389252 159 169 139
-205.857015 446.020985 1649.566460 109 103 56
-205.857015 446.020985 1649.566460 109 103 56
-181.292677 645.554113 1541.441536 139 137 136
-181.292677 645.554113 1541.441536 139 137 136
-180.529714 653.647709 1536.759853 127 130 134
-214.121938 432.903671 1650.271797 164 162 121
-76.498079 237.779641 1896.790695 70 58 10
-165.944421 -23.651318 1987.302589 176 173 122
-113.534510 98.621809 1953.681374 159 142 103
-85.711932 203.313899 1909.554100 192 177 115
-179.485798 599.207783 1571.084785 124 122 122
-75.881368 219.234467 1907.182121 65 54 32
-150.037134 -3.089718 1985.965919 45 37 37
-85.317057 193.324435 1914.684296 130 112 51
-77.805561 231.612873 1896.119690 179 165 93
-159.942818 -12.011124 1982.092285 32 23 14
-81.501091 232.042575 1891.884613 179 165 93
-164.213979 -23.878513 1985.192490 61 55 14
-89.128089 149.560702 1938.399506 137 126 76
-73.920304 -157.434177 2150.099945 40 32 9
-69.212121 -102.420533 2117.450523 255 245 222
-286.015677 339.427710 1643.078232 33 43 26
-142.450452 27.997324 1968.778801 107 98 65
-71.000117 238.646436 1894.748878 160 144 91
-71.000117 238.646436 1894.748878 160 144 91
-171.570301 657.375574 1535.680008 137 141 142
-66.206878 -120.703924 2129.257774 74 58 16
-170.527244 662.753487 1532.508469 117 126 135
-170.527244 662.753487 1532.508469 117 126 135
-244.505954 401.707363 1636.196327 52 54 24
-107.963085 93.134427 1953.444099 112 98 50
-93.431652 148.127186 1930.434036 76 57 12
-72.693366 239.764977 1889.259720 36 24 0
-170.837939 632.440758 1550.214767 193 193 187
-222.626877 419.484329 1642.568779 151 153 101
-170.176625 652.177572 1537.669563 210 204 193
-67.364603 195.688963 1919.186974 161 142 85
-65.168613 -133.865464 2132.763672 251 238 224
-154.147053 -30.659658 1986.091805 215 205 141
-159.716427 641.760349 1548.102570 171 167 166
-74.416453 232.100606 1884.728622 170 154 111
-152.043235 -27.266213 1983.938599 209 208 122
-130.807102 30.324802 1964.528275 77 62 23
-103.830075 67.444044 1963.881111 97 88 54
-102.607346 77.647156 1957.810020 64 52 12
-108.448493 69.120258 1957.901001 97 88 54
-63.254100 -174.995542 2153.084183 98 86 38
-176.058245 450.091553 1654.620552 195 195 149
-108.580101 68.235636 1957.192612 78 70 33
-102.394712 75.228220 1956.625748 166 156 108
-146.019053 -24.730398 1983.082771 171 164 121
-142.960107 -22.197601 1983.473015 13 11 1
-63.820916 238.547444 1884.580612 38 35 7
-154.128647 683.448124 1521.718502 198 207 216
-227.823162 399.992657 1639.669418 144 146 117
-144.211173 -35.701451 1990.202904 162 150 114
-143.133080 -32.653439 1988.287926 203 199 150
-143.133080 -32.653439 1988.287926 203 199 150
-265.908051 342.421460 1642.684364 160 173 129
-62.026948 240.672874 1882.659721 37 35 0
-272.361255 332.561994 1642.388916 129 134 89
-94.601715 71.228880 1961.677551 107 85 43
-94.680846 77.219468 1957.671547 255 236 218
-139.509845 -24.706949 1983.077049 153 147 102
-182.797229 431.845284 1654.019165 67 67 27
-134.629107 -23.203878 1984.911728 36 32 13
-132.029891 -33.365723 1991.779137 55 44 14
-143.585265 609.588051 1570.850086 217 211 182
-146.839857 478.369093 1650.959969 163 166 111
-139.845967 622.403288 1563.764286 150 155 158
-106.961811 42.696700 1960.335922 144 133 83
-217.457247 369.686770 1655.422211 99 97 49
-164.873648 439.115620 1655.718040 157 157 103
-133.659530 624.466467 1562.959385 182 198 204
-133.659530 624.466467 1562.959385 182 198 204
-131.295073 637.344503 1556.226826 132 131 141
-41.201955 225.647378 1893.190765 246 227 222
-187.806618 412.586737 1649.169731 130 135 96
-187.806618 412.586737 1649.169731 130 135 96
-130.909956 600.643587 1578.235626 124 127 141
-128.847933 483.391953 1651.602745 162 166 117
-196.940577 378.650022 1659.767914 88 93 66
-148.886609 283.043551 1760.449791 140 151 95
-125.562990 614.951372 1570.352173 141 141 147
-193.726277 404.994631 1645.048332 177 181 122
-192.600584 406.818342 1644.663429 69 69 29
-124.148512 640.957785 1554.007530 203 203 203
-124.148512 640.957785 1554.007530 203 203 203
-124.624848 618.684578 1567.606926 135 137 147
-612.424374 440.963840 1264.885330 133 136 97
-120.079100 653.225040 1547.843456 158 160 140
-138.509583 451.560926 1658.772469 154 160 113
-121.239853 483.778191 1652.856827 165 168 122
-117.883146 649.696779 1550.596428 209 208 194
-117.963040 599.752140 1581.849957 199 203 204
-149.248910 439.394188 1655.572701 153 154 114
-121.768749 472.158098 1657.514954 165 170 119
-223.449183 358.500767 1642.752266 154 158 123
-150.089800 280.188417 1752.798080 200 197 166
-113.321674 678.240252 1533.477306 214 209 200
-114.707947 675.366688 1534.017944 214 210 205
-116.537309 609.387636 1573.678303 131 127 138
-127.258468 453.750038 1662.327385 66 67 33
-127.258468 453.750038 1662.327385 66 67 33
-111.106658 688.813734 1527.035809 162 172 179
-111.181915 676.698685 1533.758736 132 135 140
-111.181915 676.698685 1533.758736 132 135 140
-110.897005 682.806301 1530.139351 155 161 172
-39.068964 240.533280 1867.403030 161 153 94
-104.859185 581.422377 1597.681427 205 200 179
-140.521336 432.744646 1659.791183 64 66 30
-106.794620 608.268452 1577.718258 194 193 197
-106.794620 608.268452 1577.718258 194 193 197
-118.820035 451.771116 1664.517021 138 143 92
-105.214667 670.363569 1538.627911 218 210 203
-124.554384 445.715284 1662.027740 142 145 113
-103.245246 606.692123 1578.956890 141 137 142
-134.076357 292.180824 1749.345016 128 129 103
-101.949108 619.528770 1571.371937 211 209 209
-101.035869 590.498972 1589.635754 122 120 132
-101.035869 590.498972 1589.635754 122 120 132
-100.379491 631.057167 1564.781475 154 157 165
-101.035941 597.354937 1585.134983 149 151 159
-100.578022 482.572794 1656.909943 69 76 43
-125.606525 437.276983 1664.301491 52 57 30
-125.299406 279.495382 1758.963966 45 49 30
-93.046725 542.777443 1621.086121 175 169 126
-93.143070 601.110601 1584.307957 135 136 146
-92.296010 592.620850 1589.428711 203 210 213
-92.022187 605.541277 1581.576633 148 147 151
-192.833281 358.629894 1650.732422 148 154 105
-109.540796 445.820951 1663.173676 158 161 105
-105.673587 449.051571 1663.784599 92 91 47
-84.739655 651.778173 1554.586220 141 144 159
-86.149549 583.950567 1595.406628 204 204 192
-113.813221 440.890980 1661.029816 136 139 107
-85.690409 661.107683 1547.771168 123 126 141
-190.743029 348.363876 1654.596329 137 144 99
-85.902703 656.465864 1550.061703 154 158 176
-151.516831 386.275387 1662.768745 150 144 91
-82.912439 604.375315 1583.613491 209 202 205
-79.329169 522.343254 1636.587524 162 161 111
-81.170136 648.810244 1555.970573 199 201 202
-80.890757 665.870476 1545.298290 221 216 201
-79.908615 652.463150 1554.327106 191 198 201
-75.477225 542.491198 1625.612640 208 204 179
