ply
        format ascii 1.0
        element vertex 52036
        property float x
        property float y
        property float z
        property uchar blue
        property uchar green
        property uchar red
        end_header
-102.879262 -472.427893 2898.253250 126 92 38
-156.198454 -196.423471 2877.051926 138 138 122
-167.072785 513.378906 2448.301506 19 17 17
-163.433456 -91.615999 2825.126266 26 26 26
-163.890553 558.289099 2407.605362 138 145 154
-170.281506 315.435219 2582.202148 167 161 114
-105.308163 -474.624920 2894.053459 253 207 149
-168.829477 515.995312 2443.502617 31 28 30
-175.838852 464.754057 2490.676498 108 103 104
-171.425211 45.555183 2744.177246 177 159 98
-170.981479 513.964462 2443.199539 150 155 154
-177.368414 -110.871589 2858.218384 25 24 10
-170.908618 59.706092 2729.868889 187 170 119
-165.440738 130.511165 2667.854691 187 173 125
-82.614213 409.026575 2243.202591 100 103 108
-170.212913 512.511635 2435.678673 158 157 159
-175.785065 489.625788 2466.545296 148 148 148
-176.136398 485.946798 2468.598557 146 147 145
-167.519426 -120.438039 2821.193695 124 117 100
-177.973258 464.347792 2482.143021 119 116 112
-175.574052 12.347128 2759.955406 188 180 140
-178.048277 503.284311 2452.945137 122 118 117
-84.893602 402.554703 2239.128876 101 105 110
-183.459651 454.688740 2496.762085 162 161 163
-181.588912 493.055201 2463.734055 62 55 52
-178.536832 16.944355 2753.659630 179 173 128
-180.829048 497.631550 2458.351517 52 47 46
-176.994646 82.143241 2703.528595 168 147 109
-173.265040 118.931139 2668.975258 206 184 119
-180.143607 501.729584 2448.645210 34 30 29
-182.572103 16.969098 2752.036285 132 121 91
-170.720589 -177.304661 2836.951637 80 79 75
-178.002930 -205.769610 2874.834061 66 55 28
-180.406094 546.878195 2410.601997 105 110 125
-184.597099 504.042053 2449.362946 55 53 53
-187.162459 453.876257 2487.986565 68 71 75
-178.041553 105.811524 2675.308990 69 51 20
-178.573287 -202.875829 2867.274857 60 50 33
-186.290586 46.304476 2731.289673 41 39 15
-187.856030 498.598433 2455.211258 135 130 127
-176.590121 -190.908146 2848.210335 94 76 35
-72.746289 0.354356 2415.320206 18 26 33
-191.467559 306.362414 2580.775452 183 175 135
-180.853844 -121.777070 2813.532639 161 152 114
-188.858938 487.797976 2459.973907 20 19 21
-180.405104 -107.055664 2796.694183 100 95 80
-177.882850 -159.433722 2816.608429 22 14 15
-223.442173 429.013014 2589.274025 108 120 124
-187.641394 546.619177 2409.701347 105 111 124
-179.163253 -175.826204 2826.235008 175 169 140
-194.296801 475.459957 2469.088364 44 45 43
-193.800139 7.678761 2753.495026 150 135 102
-185.088170 -201.934743 2855.212784 112 94 63
-195.893288 467.328644 2475.626183 126 125 129
-194.736195 492.778301 2456.293869 168 170 171
-199.496853 442.322779 2496.565628 24 36 54
-188.445711 -188.243616 2843.341827 133 119 66
-184.030890 -188.676047 2826.662064 139 139 103
-165.746391 -161.097646 2753.549194 255 212 158
-166.546237 -158.549118 2753.629875 255 212 158
-183.458149 -126.161838 2784.394836 102 80 45
-197.617626 52.203918 2717.885399 30 28 20
-164.928937 -158.527720 2744.893456 255 203 147
-164.928937 -158.527720 2744.893456 255 203 147
-198.429251 579.200506 2396.143150 190 191 195
-199.522340 581.665611 2396.864700 190 191 195
-198.885417 73.249203 2698.726845 146 132 90
-182.255697 -211.126089 2819.839096 65 52 38
-181.410182 -178.899741 2797.447395 44 35 22
-207.863998 34.699509 2731.768990 190 186 128
-186.609709 -167.170441 2788.354492 174 150 104
-207.916331 37.774029 2727.570724 108 97 40
-189.138067 -154.251742 2785.680199 32 20 14
-203.942466 67.728007 2696.250534 185 177 137
-208.717060 29.298714 2728.895569 184 178 111
-207.773924 533.846951 2422.851181 101 104 102
-204.218173 99.381822 2670.064163 68 66 56
-204.097772 100.731826 2665.637016 61 60 50
-212.603021 58.553243 2710.332108 166 155 111
-210.386539 56.745756 2703.661346 76 70 29
-224.194479 437.713385 2518.385887 97 107 117
-224.194479 437.713385 2518.385887 97 107 117
-214.655709 41.457418 2710.763741 79 66 22
-193.729317 -202.286172 2789.190674 34 25 16
-193.729317 -202.286172 2789.190674 34 25 16
-188.692677 627.233744 2286.877632 53 57 62
-217.062426 51.241213 2702.628517 58 55 27
-219.149828 103.264797 2658.796883 27 24 19
-223.585176 46.368018 2699.078369 174 160 108
-220.614100 547.724104 2394.520187 167 169 170
-232.827067 432.433891 2496.953392 95 109 131
-227.750254 500.565529 2429.743195 130 130 136
-227.955222 68.834442 2672.869301 78 68 58
-244.492435 427.037334 2519.440651 18 26 33
-244.492435 427.037334 2519.440651 18 26 33
-238.318682 440.144873 2488.925934 29 34 43
-248.116612 427.647543 2518.947983 30 33 41
-182.048738 -8.411951 2557.863617 108 103 78
-236.007690 487.354660 2440.641975 144 150 161
-235.173559 495.717001 2432.394791 169 172 176
-235.173559 495.717001 2432.394791 169 172 176
-270.281339 423.893595 2578.829384 137 146 149
-207.398534 571.509123 2303.995705 44 47 51
-238.730741 526.661301 2422.611237 209 212 216
-236.554408 56.578225 2677.594185 59 52 43
-234.429002 531.248283 2404.087257 90 94 99
-272.013235 421.919155 2568.518257 199 200 191
-224.129224 606.635094 2319.080925 44 47 51
-190.856051 -32.798821 2565.041161 91 84 65
-243.248177 479.855013 2443.263626 177 176 178
-236.021376 49.769983 2654.784966 121 98 42
-236.021376 49.769983 2654.784966 121 98 42
-239.821362 86.774516 2644.890404 131 109 73
-195.369720 -49.230695 2568.249893 255 217 164
-243.644309 -64.574033 2722.416306 255 218 168
-194.003654 -18.230553 2544.464302 115 103 67
-256.135607 435.134554 2487.067986 90 100 117
-232.032323 -82.112753 2692.206383 48 40 10
-237.897801 -72.921103 2692.288399 54 49 24
-268.377495 425.307989 2515.246773 40 52 64
-256.914330 418.752241 2481.159401 81 92 106
-267.938113 429.683590 2508.316231 93 101 114
-292.297268 418.260050 2573.250580 118 131 133
-261.706924 -56.658012 2728.475380 255 220 156
-288.398480 432.785177 2551.489830 102 112 112
-246.680665 -78.481627 2691.743660 217 206 149
-260.503936 523.151875 2414.060593 95 98 103
-260.279918 522.908545 2409.923363 155 157 158
-264.141941 -55.838543 2724.711990 100 61 17
-257.767034 96.415275 2616.705132 135 127 87
-265.023541 521.746397 2412.501907 84 87 92
-266.358876 473.728228 2439.141464 153 155 156
-262.271738 -173.832881 2759.761810 255 200 144
-265.468025 77.687317 2632.515335 174 177 138
-266.009665 66.172481 2633.802605 119 125 106
-273.165107 450.756311 2454.841614 125 132 141
-269.419837 522.104740 2403.598785 33 32 34
-272.986841 493.347979 2427.244568 67 67 73
-268.184018 43.426672 2641.972351 255 204 148
-242.615294 -87.802905 2627.959442 56 20 14
-309.202504 420.688772 2561.292458 209 207 199
-274.240613 524.528360 2399.694252 112 112 112
-274.567366 69.186062 2629.846382 126 122 81
-273.836112 88.545555 2610.803986 79 68 36
-311.196971 427.977467 2549.203491 225 222 208
-279.869342 63.227540 2624.788857 170 151 100
-284.716725 498.892069 2414.208412 46 40 41
-275.743961 -102.057028 2682.928658 211 199 135
-280.251408 89.506239 2599.847412 53 49 25
-321.493149 413.354301 2566.971970 89 94 97
-272.376537 294.095445 2464.711380 16 15 17
-245.660639 -18.815519 2526.641083 131 114 63
-293.116164 465.259361 2437.953568 144 145 149
-287.966681 534.855795 2378.893471 187 182 179
-301.933241 414.141750 2479.140282 87 102 118
-301.933241 414.141750 2479.140282 87 102 118
-289.359260 529.519272 2379.294586 98 96 96
-289.359260 529.519272 2379.294586 98 96 96
-311.286783 422.854328 2497.788239 88 96 109
-296.718979 516.565514 2404.941940 54 55 59
-249.974155 -11.686812 2508.009338 52 42 24
-314.049602 423.040724 2496.131325 102 111 124
-291.897416 -107.482004 2676.330757 139 109 52
-293.426728 84.917736 2587.834549 36 34 24
-293.426728 84.917736 2587.834549 36 34 24
-255.728102 -28.751990 2521.504211 138 123 77
-255.728102 -28.751990 2521.504211 138 123 77
-248.493934 6.557247 2481.017113 74 53 55
-292.351794 -58.462769 2648.311615 186 174 108
-309.973717 421.092510 2470.524406 41 50 60
-318.500900 420.360851 2496.757889 16 15 17
-255.986333 -6.930816 2500.116539 51 41 23
-308.103871 451.227331 2447.150612 70 65 66
-308.103871 451.227331 2447.150612 70 65 66
-298.498988 527.786684 2377.728081 123 118 119
-299.081635 -111.460710 2672.243118 155 128 78
-308.476472 85.281080 2595.623207 88 81 48
-315.362787 477.093554 2424.525261 124 123 127
-673.463154 1769.171524 2848.196793 200 194 187
-313.344908 578.989220 2358.194733 30 28 27
-696.061993 1738.379860 2804.427528 26 32 39
-313.362885 -108.196819 2663.221741 132 97 41
-336.606669 419.580984 2490.022469 95 96 100
-329.372382 420.330572 2466.820145 21 26 41
-316.650963 -48.564759 2634.532166 194 187 138
-320.774770 510.051632 2394.966125 188 190 190
-279.099822 24.365950 2477.028656 107 87 56
-318.688655 -107.306373 2657.309723 213 198 135
-304.231215 597.495794 2298.156357 64 70 81
-278.814387 10.254601 2476.182938 255 253 217
-333.348465 418.920851 2465.600967 20 24 29
-319.712496 525.745726 2372.677422 73 67 68
-327.025628 469.594860 2396.244240 78 66 64
-310.898256 591.672373 2288.475990 70 76 89
-333.293700 510.754108 2393.188858 177 177 177
-367.801619 407.092333 2546.507072 203 201 200
-334.996629 -36.967400 2620.102501 201 192 155
-310.903883 584.402943 2277.935982 185 183 182
-338.641858 506.189108 2390.134239 182 184 185
-342.786098 -43.882531 2632.616043 201 198 160
-312.137318 574.859905 2268.235016 108 111 115
-343.720436 -59.222800 2631.102180 83 71 23
-343.560743 -73.580706 2634.866714 216 205 153
-349.624205 -31.997511 2625.103760 77 70 45
-339.250398 134.014988 2513.513374 121 99 94
-384.298205 417.496824 2529.714775 110 114 119
-357.192421 -34.709406 2617.499161 173 157 111
-561.398506 1569.272518 2619.643211 255 255 255
-351.618099 139.771950 2519.030762 159 152 119
-363.361883 -31.283376 2606.802750 38 32 13
-359.106159 130.676234 2523.387527 171 165 118
-638.306475 1821.758652 2758.762169 54 62 79
-366.620374 -10.574351 2601.720047 169 160 103
-391.610527 402.628994 2517.222977 24 26 27
-402.572632 398.455215 2548.507690 81 84 89
-355.058026 -43.995631 2560.125351 56 19 15
-364.514256 113.618660 2526.623154 49 45 27
-371.823740 -27.642336 2598.376083 32 28 17
-373.733592 -29.870600 2603.776932 43 41 23
-374.298453 -30.099961 2600.343323 169 164 139
-367.515826 125.650418 2516.856003 155 156 116
-629.446840 1656.485176 2771.941185 182 185 190
-341.517305 275.833440 2367.000198 126 127 123
-379.030347 -30.433574 2598.354530 180 170 136
-377.753377 -28.880790 2591.838837 202 194 154
-410.608244 398.452926 2535.856628 205 209 210
-410.608244 398.452926 2535.856628 205 209 210
-412.430716 397.809744 2540.374374 181 185 186
-412.460661 397.843242 2537.995720 62 61 63
-412.460661 397.843242 2537.995720 62 61 63
-385.613680 -63.084388 2604.876328 117 77 35
-475.944948 869.853210 2548.126030 131 139 156
-386.111784 -14.775258 2578.849411 157 152 107
-478.204489 881.734848 2547.862625 131 139 156
-480.763149 893.529510 2548.565292 131 139 156
-385.534811 -15.291110 2572.538757 131 128 114
-391.142702 -57.638407 2603.349113 134 110 64
-384.600711 145.567584 2499.479675 160 153 114
-386.652637 -27.291283 2564.615250 82 83 63
-386.652637 -27.291283 2564.615250 82 83 63
-394.245577 -27.027869 2585.695648 191 178 126
-388.549089 147.985160 2492.373657 117 116 95
-403.707743 -32.146358 2599.592590 83 67 21
-414.285326 -42.806119 2599.240112 255 204 143
-411.631823 -28.365207 2560.626030 75 72 67
-411.631823 -28.365207 2560.626030 75 72 67
-428.140497 -33.383876 2590.646553 52 38 19
-434.898758 -35.448053 2587.427521 61 54 21
-439.297342 -35.273656 2593.821716 255 209 145
-440.450764 -36.538920 2585.030556 231 194 134
-440.450764 -36.538920 2585.030556 231 194 134
-440.086603 -30.761859 2581.037521 84 74 44
-436.261415 -31.902137 2559.231186 255 220 151
-439.193344 -22.869614 2565.920067 57 54 46
-446.990585 -32.626316 2583.551788 255 203 148
-444.112968 -30.160356 2570.970345 42 39 35
-444.112968 -30.160356 2570.970345 42 39 35
-451.912498 -29.844078 2578.504562 83 61 25
-455.956316 -34.737629 2578.132629 255 213 156
-456.956244 -34.578493 2565.233994 255 211 142
-958.146667 760.487413 2838.388634 247 181 110
402.071714 554.377890 2713.961601 158 142 126
396.017146 546.282244 2704.360580 86 89 94
396.017146 546.282244 2704.360580 86 89 94
382.253289 540.291309 2732.240677 95 99 100
407.328320 525.446844 2677.966309 154 161 164
343.434310 527.407837 2732.376099 255 221 183
362.907410 540.960407 2658.362579 12 15 19
437.831354 235.076141 2857.011795 171 150 99
361.734629 540.270472 2637.558556 94 105 125
427.642202 249.168253 2836.595345 47 51 39
424.770546 239.063120 2852.422142 164 143 91
312.023473 533.844566 2718.646622 109 117 124
442.123175 232.837605 2821.094513 110 107 92
423.910570 232.225204 2854.750633 232 216 169
340.328097 540.917683 2651.823997 115 118 132
340.328097 540.917683 2651.823997 115 118 132
354.099488 554.180670 2610.256195 91 90 92
348.126411 547.874546 2618.714333 56 69 85
347.077608 538.212061 2631.125259 53 64 84
347.077608 538.212061 2631.125259 53 64 84
335.003448 605.300808 2574.940872 183 182 184
329.805326 714.980364 2457.185555 91 96 105
344.792938 676.808977 2465.359116 88 86 85
344.792938 676.808977 2465.359116 88 86 85
329.133892 628.578091 2544.889069 55 52 54
424.820518 219.657683 2830.911255 77 70 61
428.361464 217.666721 2823.424339 255 230 196
327.413321 636.395121 2532.646179 186 181 178
328.521967 605.559492 2561.940384 99 89 89
420.684481 210.026073 2836.199570 255 223 173
330.508113 539.052486 2630.949020 97 107 125
330.948114 559.501696 2601.224709 69 66 62
412.165308 205.198026 2848.392296 67 65 54
418.374920 204.469681 2837.172318 255 233 188
326.624942 592.014599 2569.708252 60 55 54
332.554054 536.559582 2617.563820 144 160 176
314.785266 636.099052 2535.597992 128 124 123
324.785900 679.770327 2466.398048 121 115 108
322.910142 532.201433 2635.774422 85 91 102
321.951938 635.839462 2520.894051 111 108 110
321.951938 635.839462 2520.894051 111 108 110
313.203788 628.855944 2537.037277 108 104 99
314.434981 630.151796 2531.473732 61 56 53
317.666197 586.731482 2573.496437 154 156 157
294.618225 683.464289 2500.862503 147 140 131
393.669462 197.392488 2854.124069 193 177 130
303.349209 630.731630 2535.282516 123 114 111
303.349209 630.731630 2535.282516 123 114 111
310.863566 575.357580 2582.555771 155 150 151
400.486469 198.357892 2834.258461 255 229 195
301.508284 623.213053 2536.448669 23 21 21
304.882240 582.014179 2571.000671 100 93 90
304.882240 582.014179 2571.000671 100 93 90
391.881895 190.869713 2837.545776 246 216 187
303.987551 560.072041 2590.415192 76 67 63
378.803205 190.334439 2856.517792 209 190 147
287.605262 529.658604 2636.773109 128 133 154
258.654070 516.739511 2703.709412 133 141 148
297.636557 540.143538 2604.254150 144 148 149
297.636557 540.143538 2604.254150 144 148 149
292.899513 582.301235 2565.810013 144 147 152
293.982100 527.823019 2614.771652 101 113 141
286.251020 578.103638 2568.782806 158 154 153
274.252915 612.577963 2546.176720 194 192 191
276.447392 525.227451 2637.530708 11 14 19
281.356168 529.393244 2619.400215 75 86 113
278.926706 541.564512 2596.434784 52 48 43
275.912356 576.591063 2563.308334 62 57 58
277.097893 563.365412 2575.426102 57 60 65
275.031137 580.088520 2560.241699 59 54 56
273.777461 696.536493 2432.666397 54 61 76
275.835538 523.023939 2616.442871 97 111 130
236.870241 514.672279 2699.274826 111 120 124
275.103068 706.405830 2416.335297 86 87 91
275.536847 545.803404 2589.653778 143 145 153
262.881780 618.069220 2532.809830 130 134 135
268.602896 536.190987 2594.599533 164 165 169
268.088388 543.738651 2586.293602 164 164 170
347.006583 159.027123 2852.556992 88 79 46
298.291755 382.730770 2698.967361 198 164 118
259.891987 614.421701 2520.865440 121 126 129
266.632366 686.428165 2427.500916 39 34 31
267.352843 688.680983 2420.986938 44 57 71
267.352843 688.680983 2420.986938 44 57 71
257.359576 586.643028 2543.684769 106 108 118
288.204265 385.655832 2697.046280 166 148 101
327.561092 151.857829 2872.310257 224 202 144
328.134751 162.067401 2859.005356 144 132 90
210.992622 670.879889 2513.107491 165 164 160
404.201937 534.765434 2278.143311 107 105 105
275.972390 656.882524 2389.381981 119 125 130
306.660771 296.501279 2702.714157 195 188 155
295.095634 325.072455 2692.706299 127 122 101
238.663268 514.964390 2597.869682 30 39 53
229.304409 637.803984 2485.504913 35 33 39
303.803754 298.241496 2698.557281 131 118 86
303.803754 298.241496 2698.557281 131 118 86
297.924376 304.135704 2693.630409 192 186 143
208.784175 508.472538 2646.000481 22 36 55
368.320203 557.661963 2279.032135 128 137 140
220.860767 580.954266 2536.536407 165 166 176
217.626047 602.875614 2518.339920 67 66 70
360.562134 55.323285 2814.893723 255 214 160
381.271076 18.850137 2813.842964 255 214 162
363.488865 612.414789 2223.484612 164 166 167
365.484858 601.237345 2230.276680 158 160 161
212.573266 608.534241 2516.849709 27 27 33
185.816753 518.126106 2663.212395 107 112 115
293.349862 285.406923 2698.328400 180 168 120
363.028145 608.346653 2222.072601 60 66 71
206.952834 513.020802 2623.608971 92 102 109
214.492536 557.246351 2560.406494 132 129 125
360.904789 621.590614 2209.461403 76 78 86
288.683987 140.749145 2850.510788 171 162 118
208.941579 574.571848 2545.759010 132 126 119
210.736251 550.733328 2565.662766 141 134 125
213.846421 513.220406 2598.613167 23 36 62
358.518648 619.919157 2205.308151 126 132 143
214.795089 513.571215 2592.988777 23 32 46
356.197309 631.067753 2194.817352 106 112 125
206.964397 557.243299 2559.529114 59 53 54
208.108258 570.882368 2538.351440 29 28 32
281.179404 131.690502 2851.461220 169 157 121
353.775525 627.686214 2192.048836 70 72 82
207.177615 511.797190 2596.764946 26 40 63
168.974543 500.044537 2682.243538 95 103 103
349.983954 35.748938 2812.644577 169 147 99
348.639202 47.782290 2802.558899 168 159 116
199.326193 629.848671 2484.192276 134 134 140
201.289845 554.723644 2557.966232 71 64 61
354.653621 593.132734 2219.310188 57 59 69
352.658200 594.178438 2221.778488 57 59 69
352.658200 594.178438 2221.778488 57 59 69
202.481008 528.548622 2580.918694 122 114 107
349.053359 633.489227 2183.315277 66 70 81
285.325575 -37.286916 3001.531410 195 160 116
198.909795 551.736689 2558.143806 155 147 148
278.405929 -32.255739 3008.078194 255 223 162
162.886107 499.187803 2678.421402 127 134 137
190.901971 576.599407 2537.848854 127 122 121
279.572487 249.619246 2702.055168 255 226 182
193.729711 553.762770 2554.184151 179 165 153
188.136816 579.289007 2536.227036 123 116 113
336.437511 61.769414 2779.280281 136 117 66
192.419863 525.943661 2578.595161 143 136 133
182.041001 511.581945 2613.349915 92 103 117
260.127544 -33.284163 3015.876389 35 21 2
346.169972 586.005163 2210.453606 57 59 69
346.169972 586.005163 2210.453606 57 59 69
265.778303 561.510372 2392.293549 34 32 32
334.202361 54.782099 2778.330994 171 155 112
154.194510 497.560263 2674.013519 187 185 184
258.766460 -19.456631 2998.169899 183 166 139
185.789788 577.271986 2526.923370 71 69 68
255.895257 -16.267443 2994.767761 98 83 44
327.340984 62.051690 2769.426155 189 178 134
318.548799 98.480886 2746.261406 147 150 118
342.190051 534.452581 2251.628304 114 119 122
345.008588 545.816565 2234.189606 61 67 72
206.587839 383.224583 2670.955849 183 174 147
327.285719 19.947381 2805.864143 124 112 70
321.996903 68.687564 2763.595200 205 193 139
246.385336 121.543670 2857.477570 192 187 156
308.160400 104.877973 2743.477058 64 71 56
266.831040 -37.811685 2968.609810 255 227 185
173.007524 515.415382 2589.143753 70 83 105
318.132806 67.553782 2756.466675 86 86 68
307.977509 105.006242 2736.560249 186 189 174
163.484931 507.217789 2610.905457 95 104 113
264.404321 -42.801851 2971.476936 42 10 5
304.568124 103.504944 2742.636681 207 207 183
311.529469 110.743463 2720.658112 96 71 37
256.542730 254.184389 2680.710602 255 225 174
324.803972 30.925587 2771.076584 255 216 162
165.721250 600.112295 2505.513000 47 49 57
316.182780 59.867454 2756.474495 69 54 28
316.182780 59.867454 2756.474495 69 54 28
251.197910 -107.520604 3053.917313 255 224 159
164.107299 612.302971 2489.552689 186 185 187
157.047665 501.846361 2614.952469 30 37 56
311.826158 62.685299 2750.925446 255 227 192
261.494327 -51.373124 2965.495682 255 210 152
239.442658 -83.237380 3039.713287 159 155 104
235.157609 -61.432952 3025.457764 147 134 88
238.304257 -57.823974 3015.022469 169 141 110
235.627365 -60.356539 3021.056747 175 159 113
290.810180 511.627626 2333.875656 15 12 14
237.359905 545.280600 2404.158592 25 33 46
291.169834 109.932947 2736.524582 170 169 143
161.376095 566.803551 2529.708481 108 93 84
347.619700 512.514353 2216.857147 70 76 89
257.570958 -43.172929 2946.918488 74 40 16
234.511471 -57.240552 3006.104279 104 97 82
234.511471 -57.240552 3006.104279 104 97 82
306.184006 1.980771 2804.286575 202 195 156
346.888494 505.287313 2214.816666 89 90 104
287.586427 498.637486 2334.558678 64 73 93
298.541903 21.381401 2790.422440 169 167 126
251.647305 -38.151243 2942.300797 255 222 175
298.959875 4.744243 2804.507828 156 144 102
293.924832 495.860243 2320.486069 17 16 18
275.284767 115.052915 2736.726189 182 176 141
120.396125 487.856102 2668.711090 117 128 132
291.943622 17.626376 2799.186134 183 172 140
367.362952 450.410938 2214.497948 252 254 254
221.686411 -103.111494 3054.262924 57 50 31
295.606971 0.801362 2801.914978 159 148 110
147.570705 573.487282 2521.358681 162 158 153
251.197958 -48.252419 2936.314774 64 48 41
251.197958 -48.252419 2936.314774 64 48 41
145.976412 552.979136 2542.332649 80 71 62
143.926311 572.641373 2525.808907 138 123 114
144.949794 507.970285 2588.171959 105 117 135
234.773636 -39.742056 2956.491280 101 96 87
144.166672 566.151476 2526.982880 144 127 114
215.299606 -97.254294 3047.412300 167 165 154
147.901678 498.618174 2580.171967 114 125 147
288.173389 487.513351 2312.026024 60 68 81
288.173389 487.513351 2312.026024 60 68 81
251.076365 -61.662245 2931.724358 255 212 167
326.317739 472.458649 2250.277519 103 99 98
137.964118 593.851328 2502.907181 108 103 104
219.331145 -62.309486 2990.036392 18 17 13
214.828110 -139.956427 3074.098015 193 194 152
252.525592 -71.281153 2924.863625 90 44 0
249.603629 -74.378127 2933.062363 30 23 14
163.200080 358.239579 2674.563217 171 164 125
163.311458 371.891427 2659.959221 183 173 133
211.625147 -137.808609 3068.130302 98 90 53
200.489187 104.772210 2846.600914 178 166 112
250.530791 -69.805515 2918.284225 82 46 0
256.191587 497.512436 2343.455124 28 32 37
206.918073 -143.855333 3075.418091 204 206 177
195.885170 255.516005 2699.229431 93 76 27
199.381280 262.828374 2682.579231 97 94 56
238.921022 -57.587284 2918.935013 255 224 162
127.845943 572.991610 2516.211319 116 114 113
200.552297 -126.830101 3060.688210 184 174 134
200.552297 -126.830101 3060.688210 184 174 134
244.610023 -85.080117 2928.453827 255 225 184
193.388033 89.377069 2858.697701 152 145 96
197.631633 110.266936 2829.322052 128 121 106
118.833721 596.471071 2506.494904 41 40 42
263.531303 20.256095 2782.764816 96 104 74
250.477362 488.486242 2347.444344 63 64 68
250.477362 488.486242 2347.444344 63 64 68
239.057779 -76.806694 2925.256729 255 210 151
192.518318 -134.439301 3068.438911 181 165 128
289.025569 461.976051 2288.388252 31 32 36
322.712040 431.788397 2247.540855 22 20 20
339.031911 432.969475 2212.628174 144 139 140
202.023077 -62.390321 2970.752716 106 98 91
343.439817 413.974571 2212.874222 46 39 20
112.687993 593.858957 2498.460197 95 92 94
323.979807 422.928190 2241.027641 132 140 147
119.867027 513.882303 2561.386299 68 62 55
260.058165 467.248774 2324.193382 68 69 67
112.983608 612.741137 2474.454117 117 120 128
181.018710 34.165826 2898.178482 127 113 84
118.252945 500.874376 2568.439484 146 152 163
105.180824 496.725130 2597.364807 91 97 110
193.655813 -84.502977 2985.247040 79 77 66
179.192626 247.447300 2689.565849 180 165 103
189.064538 -88.760179 2997.223663 69 51 20
263.255167 462.354374 2310.635948 19 17 17
263.255167 462.354374 2310.635948 19 17 17
80.691862 483.243608 2656.465149 186 188 188
80.691862 483.243608 2656.465149 186 188 188
180.818462 -116.751957 3038.065147 154 147 104
179.827642 -139.084899 3061.193657 142 135 110
108.340275 564.493465 2519.310379 31 27 26
103.798091 488.947296 2601.280022 33 41 58
261.317515 463.271666 2306.605721 56 59 63
110.237002 513.059998 2561.246300 91 75 62
176.527619 60.070294 2867.389870 85 86 84
112.978685 493.070269 2573.960114 45 53 70
110.372376 538.189411 2533.238029 94 87 78
107.058001 566.924620 2509.475327 31 29 29
168.356895 42.626914 2893.310928 189 180 146
178.371060 -119.591367 3028.954124 44 41 20
173.193955 269.053960 2662.501335 43 46 21
106.053698 598.629379 2477.891350 114 117 125
170.954645 267.691541 2667.058754 135 130 99
181.396461 529.172516 2392.382812 17 19 27
70.426899 484.884214 2658.317375 145 155 155
179.635906 -11.025258 2917.316628 132 138 119
174.831510 -16.306074 2930.570030 96 89 69
174.831510 -16.306074 2930.570030 96 89 69
104.325628 586.255693 2490.014648 44 43 52
72.439331 497.473526 2639.949036 216 217 213
94.897437 495.951557 2592.528725 83 90 109
104.911709 561.001301 2509.283447 37 36 40
90.622318 634.210253 2466.722488 44 38 31
166.830945 267.208838 2666.835213 29 20 11
172.349727 -133.763301 3041.674042 133 119 90
172.094703 -121.816576 3028.668213 74 65 21
102.431738 532.820320 2537.601089 33 30 26
176.387405 218.860006 2684.406090 255 218 156
176.387405 218.860006 2684.406090 255 218 156
86.714506 645.582294 2454.429054 57 65 82
162.338996 56.124151 2866.704750 75 65 31
172.158015 -161.764681 3055.776215 169 160 123
97.801363 604.140472 2468.709946 142 146 151
98.417556 539.512110 2528.183174 124 127 135
161.664379 22.403833 2897.058487 105 93 75
173.992908 -62.170547 2953.165054 50 45 36
167.655003 -110.337746 3011.031723 32 30 30
84.770662 645.961237 2452.064705 136 138 139
84.770662 645.961237 2452.064705 136 138 139
159.564233 266.883564 2662.994957 111 110 82
163.154769 243.705654 2677.758408 62 52 5
225.467443 33.924338 2750.991440 25 23 23
154.188275 64.679277 2863.832474 164 152 134
101.208258 486.806726 2563.991547 90 93 101
95.371664 529.780912 2533.115005 181 179 179
95.371664 529.780912 2533.115005 181 179 179
59.530640 481.505775 2651.789856 192 197 196
161.424756 -0.878774 2907.013512 72 75 73
161.424756 -0.878774 2907.013512 72 75 73
172.710228 -77.153581 2956.192780 125 118 98
170.967340 -60.969150 2943.013382 13 10 6
162.714255 233.071351 2676.847649 43 26 7
115.537298 348.945999 2661.252213 220 215 176
112.545824 367.218781 2649.038696 179 176 125
93.209362 534.001827 2527.954865 184 181 183
153.485346 26.610556 2889.059448 189 177 129
149.609327 -3.684026 2924.384880 10 8 0
149.692690 58.518267 2860.449219 182 165 132
155.398822 -137.252533 3034.232521 188 189 147
229.145098 28.841755 2723.694801 56 43 11
102.419257 604.627466 2431.722260 54 55 59
85.007554 586.250114 2482.849312 146 146 146
159.855235 -137.593615 3019.599533 124 113 85
155.398977 -128.934646 3017.942429 124 113 85
86.758339 538.607788 2521.785355 163 162 166
146.323490 34.881392 2879.672813 179 162 123
90.354866 620.506191 2435.854340 54 55 59
161.665726 -77.356523 2951.363754 152 143 116
85.007054 523.461676 2534.328842 81 80 89
84.088236 527.605867 2531.524849 95 94 103
138.859570 -8.741242 2926.720619 41 41 27
145.536137 7.417779 2896.263504 41 40 30
82.388908 517.598629 2538.323402 190 189 193
157.532322 -111.406934 2978.308487 71 70 66
904.955292 -761.817646 2069.344139 178 179 177
51.889420 484.451962 2626.031685 135 140 139
309.743857 408.334970 2168.937111 227 222 219
43.001789 478.335714 2647.975159 176 181 182
139.240241 35.153538 2870.265388 159 149 115
66.877234 848.106098 2249.771118 161 155 150
75.557923 591.493940 2474.339867 95 92 94
60.667002 634.975290 2460.661125 58 54 53
136.414349 56.885648 2850.250435 51 57 46
136.414349 56.885648 2850.250435 51 57 46
137.256062 -5.025407 2906.059647 71 69 58
67.141092 835.622883 2253.987503 89 78 74
67.141092 835.622883 2253.987503 89 78 74
156.537879 -88.932914 2941.059875 94 77 50
44.875264 486.399317 2625.700569 145 154 157
73.172975 488.042068 2562.500954 148 158 168
73.172975 488.042068 2562.500954 148 158 168
133.781064 7.414585 2889.549637 33 34 30
71.931225 526.520157 2526.877022 164 166 177
60.647982 842.080975 2252.739334 168 160 153
72.128034 494.212151 2555.205154 114 117 131
127.998102 -12.027952 2913.849068 29 30 28
30.975041 477.794266 2652.608299 175 180 179
58.945793 487.338018 2584.751129 17 16 18
129.547298 -4.979409 2901.591301 95 95 81
69.744635 574.154329 2479.635239 29 30 34
128.585863 -1.716254 2891.830635 34 37 22
50.436711 631.790876 2458.615875 57 52 54
124.943435 11.716635 2885.521317 45 43 19
126.095033 -153.732741 3035.982704 197 197 173
119.796920 263.810992 2658.002663 201 187 158
124.481690 -141.469884 3026.977539 56 44 10
61.338317 588.576698 2469.897842 106 105 109
57.717133 580.096865 2484.667206 145 143 143
62.521523 486.298895 2559.922791 156 160 165
116.075885 41.057193 2864.543533 113 97 55
125.193775 -171.038425 3040.865898 73 62 30
50.700724 830.662346 2259.753990 83 73 73
121.450210 2.421611 2884.587669 53 43 9
84.578961 610.996580 2394.082451 48 48 48
147.015476 155.252028 2687.081146 255 215 155
147.015476 155.252028 2687.081146 255 215 155
115.652072 254.118299 2657.369614 193 191 151
113.300085 252.355456 2663.432121 161 149 113
56.637794 539.123011 2509.683037 198 195 197
110.199511 251.705527 2664.919853 176 155 117
114.694834 -157.761216 3035.024834 168 159 115
108.141994 61.342418 2841.390228 138 139 113
136.175752 157.176435 2694.216919 53 43 25
51.059854 562.798691 2493.274879 148 152 153
120.293808 -189.834964 3047.081566 255 214 156
115.738475 -170.024776 3037.838364 72 51 13
107.879460 56.479472 2844.273567 148 139 95
50.454777 579.787636 2478.120422 31 33 34
38.903069 642.524242 2440.688705 63 61 60
42.908180 830.930901 2257.753372 170 161 157
53.021121 482.792902 2554.549026 57 58 62
140.045869 163.780773 2667.828369 255 224 177
49.187544 534.777975 2512.148476 192 191 193
67.261231 346.994233 2647.616005 194 197 152
64.193451 638.914871 2383.138657 157 164 167
102.317488 254.800367 2656.403351 186 180 157
127.049577 156.871223 2694.872475 255 232 173
127.049577 156.871223 2694.872475 255 232 173
36.340302 849.900150 2243.920326 176 170 165
20.905934 479.126978 2616.188240 38 43 42
44.606873 527.557516 2522.095871 191 190 194
36.056712 846.304798 2246.509171 103 95 95
123.469603 -96.771175 2933.509254 173 159 117
114.087176 -170.831501 3019.429016 140 143 117
46.110934 484.508324 2556.327438 135 141 154
108.015883 -179.731965 3037.645721 217 207 147
47.161058 485.592747 2551.389885 173 174 178
63.509864 351.227283 2639.081955 198 196 161
107.423675 -21.854326 2886.522865 161 160 132
107.373071 -162.830091 3013.225365 128 129 109
39.840969 496.209717 2545.025635 174 173 177
91.923094 35.539380 2858.385086 144 147 98
37.938935 592.159939 2460.346222 191 191 191
36.361328 581.645393 2472.862053 187 176 168
38.676709 491.625690 2547.887611 169 168 170
38.676709 491.625690 2547.887611 169 168 170
96.445996 56.531292 2824.477768 77 78 74
96.445996 56.531292 2824.477768 77 78 74
33.375418 574.497080 2481.110954 75 76 80
32.461056 807.243633 2267.880440 132 121 117
0.669225 469.247532 2639.920425 80 83 81
0.669225 469.247532 2639.920425 80 83 81
0.669225 469.247532 2639.920425 80 83 81
113.344097 -81.233430 2907.769585 146 135 103
36.182240 589.590359 2455.977821 89 88 92
25.513417 534.384584 2527.746582 89 84 83
114.455259 -81.778556 2904.486465 119 101 60
34.659240 497.244930 2542.355156 155 155 161
-0.357588 469.970226 2639.575386 46 50 44
99.315119 -170.510197 3015.872955 200 199 148
33.409774 574.893236 2473.366356 33 31 31
-3.629207 469.493580 2644.922256 197 202 200
107.966971 170.904827 2680.861664 193 182 144
22.196341 623.924208 2446.852875 40 38 37
25.666338 827.719593 2253.026199 135 123 117
27.545026 565.535975 2487.089729 181 186 189
98.281765 -166.699600 3005.418396 26 21 12
107.555008 -78.751618 2905.812263 141 124 97
31.597918 589.839363 2455.355453 65 64 68
88.864154 65.617234 2810.896301 105 126 127
107.716620 162.474477 2683.099747 187 183 159
88.918018 82.065755 2794.271278 130 137 140
75.419909 38.117930 2860.848618 87 88 48
90.155280 87.367278 2785.259056 127 135 134
20.394672 840.247822 2247.299767 116 106 99
94.415575 91.658503 2769.621086 49 57 56
75.589007 51.656419 2841.790009 188 184 143
45.845681 351.256800 2632.461357 164 160 107
-7.280613 471.756268 2631.846237 195 198 189
-11.972306 471.948004 2641.324043 114 127 125
26.960203 483.906555 2547.578621 154 153 155
87.486756 92.017567 2774.459839 58 72 71
20.664878 816.178036 2258.950424 104 100 99
15.323824 478.823090 2574.460030 36 40 41
85.024929 77.287829 2791.834831 201 196 165
82.967275 83.677965 2786.276627 161 164 139
100.486755 -213.642168 3016.320419 47 43 15
21.291575 555.959034 2487.154770 132 133 137
101.507282 158.467472 2678.454781 99 97 89
72.118008 61.301339 2827.016258 41 38 24
81.446242 -27.879006 2886.593628 56 47 20
30.487248 631.736994 2397.891617 150 141 131
12.341789 850.388527 2238.307762 138 125 117
11.690869 481.712437 2571.317863 182 191 195
20.926431 483.628321 2550.357246 76 80 85
40.169588 348.927855 2630.500603 174 174 126
10.222162 475.867367 2577.205849 97 102 111
21.055456 657.359028 2389.821053 131 132 130
19.554591 502.238178 2529.803848 177 179 180
14.081182 479.062700 2560.401344 108 113 122
78.559673 227.798033 2651.016808 156 149 129
74.373376 79.316556 2792.619514 112 119 116
92.283064 -217.871022 3019.231224 66 54 26
92.283064 -217.871022 3019.231224 66 54 26
14.788958 574.265003 2470.493889 121 120 110
76.768553 -38.951096 2888.806534 100 98 63
52.507061 74.455827 2837.096786 164 162 144
86.402678 -200.538540 3010.569382 255 216 159
11.858631 530.786180 2508.928680 126 111 102
14.659265 589.229584 2449.683380 191 187 186
10.451642 581.926489 2464.891434 87 78 74
14.191674 790.838671 2270.120239 222 216 211
14.191674 790.838671 2270.120239 222 216 211
72.600889 224.906445 2653.606224 50 39 12
-1.072069 642.656422 2431.223679 101 92 88
92.317873 119.520378 2701.122665 157 162 160
45.224243 105.585694 2811.973953 166 169 160
9.738075 546.836853 2491.896439 129 113 101
75.939643 166.158295 2693.240166 25 22 18
2.397672 478.870678 2567.523956 22 22 22
2.397672 478.870678 2567.523956 22 22 22
37.366965 174.715042 2764.938927 90 88 47
89.869964 119.067097 2704.244995 29 31 32
41.895279 87.950295 2831.822014 144 141 113
67.634171 232.977867 2645.097923 19 17 16
71.995467 -181.565225 3004.015541 95 74 0
71.995467 -181.565225 3004.015541 95 74 0
86.720276 117.040384 2706.339455 120 126 125
40.971455 37.268516 2870.232010 209 200 167
7.455350 534.293556 2497.479057 84 75 71
79.627633 -153.579247 2957.572937 27 24 19
-26.021180 481.111145 2611.667061 141 147 146
63.796341 219.206595 2655.675888 31 25 6
6.045510 530.915356 2497.868156 167 161 162
65.089273 229.487038 2639.616966 17 14 10
79.200310 132.100201 2694.885635 13 9 8
26.595065 173.798358 2766.848183 97 97 51
69.372827 156.651533 2692.068481 26 23 19
2.122692 495.667219 2528.399086 97 96 98
36.150038 123.761475 2785.084343 44 50 49
34.869701 114.897037 2794.716263 172 176 165
-7.484921 480.874300 2559.846878 30 36 41
23.878583 172.016895 2763.180923 171 162 119
27.194998 89.988840 2826.608086 169 159 119
-6.053364 835.487556 2238.467979 175 169 162
58.568513 216.245151 2648.156738 121 114 99
-38.209009 462.948465 2632.947540 152 157 156
-21.601033 458.020926 2599.544144 57 67 77
31.714532 27.329212 2865.196609 71 56 30
69.799370 -106.291258 2899.461174 129 128 118
0.657271 670.488262 2361.359215 149 159 166
-11.666358 475.544596 2557.767487 40 43 48
-4.511406 473.379517 2544.493675 134 136 144
-7.293640 572.364378 2463.311005 164 158 151
66.703874 163.119161 2659.561920 19 15 14
-7.443938 478.791952 2537.347412 105 105 111
-5.559911 652.619791 2380.080032 108 105 101
47.456950 102.212727 2744.689369 62 67 66
56.511712 152.973425 2680.579376 42 40 39
47.293603 219.682598 2637.702751 116 114 104
63.025975 -132.430482 2911.221313 102 104 105
21.664408 42.106113 2845.876694 165 150 111
52.139026 -84.984744 2890.753746 14 18 7
-5.531651 765.609121 2270.118523 121 112 109
23.960844 10.666253 2865.180206 89 78 40
-14.886640 810.220718 2249.678230 129 122 113
-17.151180 474.726725 2546.086311 34 43 63
38.350043 153.007829 2708.557701 130 129 125
42.957237 151.945531 2699.424171 29 27 26
-15.966085 566.038561 2462.034607 32 27 26
-11.640620 655.928564 2374.553680 39 41 49
22.724146 9.032748 2864.203835 88 78 44
22.724146 9.032748 2864.203835 88 78 44
13.875714 67.243946 2831.096077 179 161 100
-51.822710 466.179895 2621.921730 205 203 195
-15.936114 487.933302 2526.404762 171 174 178
-28.407627 471.589422 2564.987183 17 14 16
-21.151669 566.622877 2466.682243 177 174 176
-33.183137 616.683912 2439.681053 37 36 32
-33.202112 468.608522 2567.821693 67 73 84
-21.937963 564.065170 2461.327744 52 55 60
-20.595673 532.053185 2484.912300 122 124 125
-11.535774 785.130405 2246.675491 98 93 92
15.597019 9.335189 2859.598923 58 49 39
15.029703 10.404063 2859.589767 58 49 39
-22.688402 500.740480 2513.194847 196 194 194
-23.174222 545.479774 2474.852562 145 142 144
-10.630834 659.158993 2350.014687 62 70 87
-12.946826 773.723269 2254.605675 67 57 57
-24.487372 810.318851 2246.205330 166 156 149
-12.432042 755.042791 2264.800072 69 62 59
9.898594 90.883362 2788.109398 27 19 6
19.078407 109.438026 2750.286484 26 25 29
-39.703262 474.179459 2560.922623 83 92 105
24.532047 -132.666099 2944.952965 184 171 109
-27.017060 541.931295 2472.690201 138 140 150
-30.475816 473.442459 2536.870956 81 88 103
11.466504 14.329216 2840.896606 123 118 97
25.793195 111.610758 2726.526070 89 92 90
-30.333412 473.511839 2533.582687 132 141 151
-29.497454 813.433361 2237.553787 177 168 159
-37.249601 556.106997 2472.173500 207 206 208
-31.991503 542.986345 2472.159767 139 144 153
-19.524413 341.568375 2617.884254 155 160 115
3.521334 -25.789118 2882.901573 111 102 65
32.039657 -123.299563 2903.862953 185 184 158
21.362133 131.029499 2707.972908 16 17 15
0.258373 103.819060 2775.364876 26 24 14
0.392465 -8.565439 2865.857124 80 79 59
18.751152 144.592035 2694.493484 81 78 73
-35.205355 818.299198 2233.994675 174 165 161
17.550626 -127.112031 2926.959229 27 27 9
-38.362941 475.077772 2531.391907 161 167 174
14.893779 134.999597 2706.412315 85 83 82
-25.253090 340.024471 2616.056252 147 145 105
-24.360205 788.621378 2232.440948 30 18 18
22.800924 177.852428 2649.297714 132 125 116
30.882344 179.541457 2627.159119 18 14 9
-19.205280 724.139929 2268.149376 157 155 155
-28.150323 642.531109 2354.912186 35 41 54
-28.826839 790.522242 2229.449654 51 41 34
-44.586134 577.085018 2440.922928 195 197 197
-12.800083 68.732393 2802.680588 147 141 112
-18.050568 716.663647 2265.496063 152 150 150
-40.278387 820.549583 2222.050858 26 13 5
-39.565077 805.080223 2233.402252 166 160 153
-83.096558 454.601192 2622.366142 138 144 143
-23.739228 41.399035 2844.046974 20 21 19
-37.525874 803.905582 2229.078293 62 54 55
24.748659 184.719169 2616.112709 82 76 63
-22.954671 737.496805 2251.218987 58 49 46
-17.123109 84.564680 2786.448479 191 189 155
-28.319007 35.099679 2851.419640 181 180 154
-47.658402 569.949532 2442.303848 86 93 102
-47.703600 530.062437 2475.718689 168 170 171
-48.380408 571.122742 2442.446327 86 93 102
-1.615594 -102.178621 2907.590485 29 29 13
-42.712617 804.679108 2232.116508 54 50 49
-47.346655 833.689785 2216.050148 50 37 29
-30.496144 39.414182 2847.036171 186 182 153
26.174501 150.487661 2631.311798 55 52 47
26.174501 150.487661 2631.311798 55 52 47
1.263323 -106.950641 2901.147461 22 23 19
-8.164538 653.315544 2281.541443 98 101 109
-10.235506 654.930925 2284.132576 98 101 109
-56.050217 560.050678 2458.539009 123 125 126
-31.056008 53.758764 2826.729965 181 173 143
-53.882927 522.392178 2482.617760 183 184 188
-13.202842 621.063280 2312.355614 20 19 23
-27.124572 67.758524 2803.633690 149 149 133
-61.686230 463.575077 2544.581032 23 27 38
-63.765252 473.219442 2536.901283 52 61 71
-42.660567 39.399225 2846.272469 191 178 152
60.533595 193.717027 2494.991302 6 9 13
60.533595 193.717027 2494.991302 6 9 13
-33.576861 -111.158121 2950.663757 218 209 175
-29.854429 -115.210247 2945.727921 50 46 21
-60.750592 481.377363 2513.907814 129 129 135
-29.795754 98.970610 2765.306664 157 140 121
-32.076886 -107.146335 2941.177940 188 193 142
-46.286914 32.981902 2853.681564 119 105 93
-40.579030 69.556189 2806.895256 111 98 84
11.410631 162.137818 2616.009331 63 62 58
-36.112291 90.700299 2775.973701 169 164 155
-70.170897 553.183270 2465.093994 207 208 212
-64.009911 571.459055 2436.070824 186 188 189
-39.172101 758.297968 2226.794434 149 147 146
-0.679352 127.380681 2665.141106 74 72 71
-65.860146 507.979965 2490.328598 120 121 125
-42.943504 765.033770 2226.361847 61 54 51
-40.327623 83.031434 2784.228134 172 171 157
-68.684703 582.190847 2431.702042 139 149 156
-41.835657 765.712643 2219.451523 62 62 62
-67.410231 451.861572 2532.668114 91 102 116
63.885510 505.611610 2199.595070 122 126 131
-34.927681 100.577402 2744.681168 69 66 61
-73.225605 517.078972 2484.631538 166 166 172
-70.301956 569.190884 2434.035301 179 183 184
2.446034 169.129455 2604.188538 13 11 11
-39.270905 746.738768 2218.416214 58 51 48
-7.121288 162.028778 2627.854729 123 124 122
-46.542987 -127.647817 2950.690079 208 207 179
-67.876124 29.923055 2866.509438 101 90 76
-67.876124 29.923055 2866.509438 101 90 76
-9.844418 171.410072 2624.481392 18 15 17
-77.152771 556.580210 2452.898598 105 104 106
-64.261389 34.585956 2850.607300 180 166 130
-72.699577 583.877945 2417.430115 208 208 208
-30.079412 -103.306544 2886.933517 90 91 89
-4.068308 135.427594 2634.570694 16 17 15
-76.556629 460.972404 2524.268532 33 40 55
-76.556629 460.972404 2524.268532 33 40 55
-51.483238 96.621549 2767.607498 26 21 12
-4.423823 173.878431 2598.126030 105 103 102
-85.739380 464.777327 2535.978508 28 42 60
-84.126687 465.722513 2530.527306 43 55 79
60.075271 583.522129 2120.996094 54 59 68
-35.833129 -103.530610 2888.147736 103 104 102
-47.503209 -120.118093 2926.071358 59 58 54
-40.562904 -180.016041 2959.322929 186 190 161
-52.155566 -110.495830 2925.837517 59 58 54
-104.453766 450.647449 2581.955528 61 71 81
-82.602847 493.436480 2499.667740 84 79 76
-119.139600 448.627901 2613.829803 136 144 144
-83.768088 472.690821 2515.620995 44 43 45
-84.539837 465.884876 2521.701050 105 107 115
-117.220747 465.329647 2592.368507 122 127 126
57.421386 610.836792 2094.726753 137 140 145
-81.862843 524.191380 2466.262627 137 135 134
-43.722025 -96.609312 2886.779594 93 94 92
-83.541197 555.732346 2443.189430 104 108 113
-20.079501 128.865266 2650.551033 96 96 90
54.251146 608.538389 2094.655991 48 45 47
55.295151 601.334381 2098.029518 49 48 52
-88.273227 504.158783 2486.232948 42 38 37
-20.469393 176.471424 2603.570557 22 20 19
-66.281199 34.718233 2813.977623 162 148 120
-66.281199 34.718233 2813.977623 162 148 120
-88.108480 572.837448 2425.836182 118 121 126
22.365634 -488.351727 3042.284012 208 230 195
-126.857853 453.724766 2604.530907 202 203 199
52.493823 594.104671 2099.415779 105 108 116
-93.249840 492.291164 2497.651100 142 136 131
53.017479 506.289387 2167.075920 26 31 40
53.017479 506.289387 2167.075920 26 31 40
-94.898355 485.007906 2505.172920 57 55 54
-94.898355 485.007906 2505.172920 57 55 54
-82.463163 49.806026 2826.012993 102 89 75
52.531654 571.513987 2111.568451 69 72 80
-95.188010 473.538923 2512.082672 50 42 35
51.355886 587.458181 2100.003242 74 74 80
-98.305744 462.266779 2526.867294 34 45 59
-98.305744 462.266779 2526.867294 34 45 59
-93.952584 523.941135 2467.691612 49 44 45
51.588058 591.110563 2096.111870 78 81 86
50.356460 512.589741 2159.580994 90 96 107
50.804037 501.127672 2167.795563 84 93 103
-84.939784 328.818202 2601.965904 128 129 90
-59.638417 -192.820120 2965.093040 196 195 151
-108.365095 459.180784 2545.472908 98 110 122
-28.012627 168.136621 2603.233337 104 105 103
30.682176 542.799807 2171.916199 58 64 75
49.651206 582.841921 2100.077248 149 151 152
-97.525358 458.270454 2519.961166 46 52 65
-98.896652 507.172871 2483.706284 49 44 41
-98.896652 507.172871 2483.706284 49 44 41
-8.809326 -403.125429 3017.988205 183 240 225
-4.286388 -468.549347 3058.821106 158 122 52
-96.236616 567.834663 2425.717735 72 77 86
-101.271474 526.025820 2469.573212 126 123 115
49.127302 553.385115 2119.326210 68 74 87
736.863708 -1351.564217 2140.398407 93 102 111
-28.035635 146.797192 2611.650658 12 13 11
-34.573773 154.879904 2618.793678 98 95 91
-98.839295 567.297268 2429.195213 176 178 179
-102.322090 459.128571 2521.733856 114 123 143
-136.035764 450.241470 2601.762772 200 201 197
0.634609 -482.685852 3046.175957 231 206 174
-14.033820 -470.061827 3063.413239 134 104 47
48.063278 556.752396 2107.568359 149 152 156
-86.079985 96.910095 2767.135620 61 62 58
-100.179660 568.215036 2422.176933 140 144 149
-106.841016 471.563005 2512.581444 70 68 68
-92.672884 71.635741 2798.164177 97 80 41
-19.289099 -472.261477 3071.673584 180 106 40
-28.290808 98.626602 2635.512733 56 56 50
-105.038738 457.280970 2517.903328 56 63 82
-103.756297 564.078236 2429.368591 125 129 134
49.729067 449.329710 2181.161499 101 98 94
-96.474326 -83.661872 2922.023582 27 26 22
-11.890111 -541.511965 3098.843575 205 127 34
-16.930388 -538.961554 3103.016090 164 234 217
-78.432524 -61.980265 2858.860970 63 60 56
-105.008435 565.899420 2420.166397 122 128 133
-141.162097 456.694508 2585.504723 125 128 126
-145.290482 447.532558 2599.384880 211 213 201
-122.862589 456.662130 2542.049980 100 109 119
-103.130937 58.624041 2808.149147 117 101 78
-66.052961 -111.116648 2854.040527 49 47 39
-109.119749 575.237370 2407.994461 155 164 174
-49.770576 169.779205 2596.359634 100 96 95
-114.971697 466.952562 2505.933952 74 69 66
-114.971697 466.952562 2505.933952 74 69 66
-83.160418 -75.894493 2855.097580 49 47 39
-37.050283 -415.174341 3017.666245 178 122 51
47.774306 469.939184 2134.333420 255 255 255
-156.780696 442.524624 2605.083084 72 84 86
-38.289696 -422.037268 3020.211983 208 219 203
-11.695934 -463.126898 2986.529732 202 115 27
-46.392250 -340.080023 2965.435028 255 216 145
-15.143062 -463.526106 2989.854240 180 227 218
-45.011264 84.515733 2621.306419 30 18 0
-122.389221 -73.731583 2912.900162 28 22 17
-116.794837 87.183356 2771.627045 43 43 43
-113.489676 97.576594 2756.033897 139 139 133
-50.010347 87.786478 2623.190498 255 231 170
-37.343550 -364.604330 2943.921280 89 57 28
33.455479 420.098066 2180.215454 107 104 96
366.919279 -665.535164 2285.131454 93 102 111
-52.790064 -568.972921 3137.139511 148 233 225
-52.790064 -568.972921 3137.139511 148 233 225
-44.887769 111.480999 2590.571785 38 19 14
-121.020401 316.528463 2599.102592 158 155 111
-65.496659 493.749762 2338.062096 23 25 35
-87.681210 227.430964 2592.529678 35 36 16
-109.036171 114.179933 2724.664688 56 66 66
-109.036171 114.179933 2724.664688 56 66 66
-59.913278 -562.517262 3138.804817 154 237 238
-119.672942 -95.017439 2905.039787 183 182 126
-117.778826 103.904259 2746.546745 47 53 52
-48.313233 109.858465 2586.643600 255 222 162
-48.933569 106.329632 2590.650558 255 214 155
-117.459142 109.112847 2737.707710 52 57 56
-161.026514 447.011471 2573.522758 32 39 42
-118.730581 -97.676331 2896.866226 78 67 29
-135.786164 529.261732 2452.119637 125 123 122
-137.633955 502.471972 2476.486397 91 84 75
-109.179330 -54.421628 2838.760948 19 17 7
-119.573975 -108.033848 2902.909279 130 119 62
-118.507314 113.033569 2725.523376 100 103 107
-118.507314 113.033569 2725.523376 100 103 107
-132.065785 571.556377 2403.304672 165 171 182
-151.612604 451.103640 2535.380936 92 105 119
-123.492527 115.341580 2722.786331 51 59 59
-146.228600 540.408516 2448.091698 185 185 185
-146.228600 540.408516 2448.091698 185 185 185
-136.600018 571.310091 2402.649689 165 172 181
-121.103323 121.930504 2709.774399 45 48 46
-144.117081 515.059853 2460.268593 130 115 99
